ply
format ascii 1.0
comment Created by Open3D
element vertex 1184
property double x
property double y
property double z
property uchar red
property uchar green
property uchar blue
end_header
0.199258 0.0810087 -0.0534206 99 103 95
0.182008 0.0621718 -0.10416 21 23 29
0.18314 0.060746 -0.108313 17 21 28
0.184761 0.0598002 -0.11118 23 23 32
0.187801 0.0599947 -0.111023 14 15 22
0.190731 0.0600433 -0.111262 42 43 51
0.19365 0.0600336 -0.111663 18 20 25
0.197173 0.0603895 -0.111114 25 23 32
0.200261 0.0603869 -0.111517 17 18 25
0.203048 0.06015 -0.112541 17 18 25
0.206012 0.0599927 -0.113363 17 18 25
0.208617 0.059596 -0.114812 19 18 25
0.211624 0.059408 -0.115726 19 18 25
0.214338 0.0590343 -0.117124 16 17 25
0.217259 0.0587507 -0.118296 18 18 26
0.219831 0.0582722 -0.11997 14 15 22
0.222573 0.0578666 -0.121462 25 23 32
0.226609 0.0580409 -0.121489 35 34 42
0.230915 0.0582795 -0.121371 19 18 25
0.238383 0.0598062 -0.118036 81 83 88
0.258324 0.0663135 -0.1023 113 119 113
0.262167 0.0659289 -0.103874 113 119 113
0.265906 0.0654797 -0.105616 114 120 114
0.268908 0.0647375 -0.108087 115 121 115
0.271438 0.0638261 -0.110973 117 123 117
0.274134 0.0629831 -0.113689 120 125 120
0.277369 0.0623263 -0.11595 119 126 120
0.281564 0.0619725 -0.117482 118 125 119
0.286525 0.0618312 -0.118515 118 125 119
0.29095 0.0614875 -0.120048 118 125 119
0.296045 0.0613107 -0.121199 119 124 119
0.300321 0.0608642 -0.123002 119 124 120
0.305341 0.0605981 -0.124393 119 124 121
0.3095 0.0600712 -0.126407 118 123 120
0.313495 0.0594853 -0.128567 118 123 120
0.317034 0.0587733 -0.131022 119 124 121
0.31952 0.0578054 -0.134061 118 123 118
0.321343 0.0566965 -0.137412 118 123 120
0.322772 0.0555206 -0.140901 119 124 121
0.325963 0.0547485 -0.14348 117 123 117
0.329109 0.0539661 -0.146083 118 123 118
0.331332 0.0529984 -0.149088 118 124 117
0.334357 0.0521985 -0.151724 119 126 117
0.337088 0.0513447 -0.154474 119 125 117
0.341036 0.0507158 -0.156748 118 123 118
0.345194 0.0501131 -0.158975 113 121 116
0.347461 0.0491792 -0.161891 80 85 88
0.349322 0.0481892 -0.164913 70 74 77
0.354007 0.0476573 -0.167008 113 120 113
0.358006 0.0470042 -0.169357 116 120 112
0.362223 0.0463734 -0.171671 113 117 108
0.368506 0.0460228 -0.173461 107 113 109
0.373823 0.045509 -0.175587 110 113 110
0.379451 0.0450149 -0.177698 108 115 109
0.384267 0.044395 -0.180058 109 116 110
0.390031 0.0438756 -0.182257 107 113 107
0.396249 0.0433862 -0.184429 101 107 101
0.4027 0.0428969 -0.186632 100 107 98
0.407462 0.0421979 -0.189207 97 106 94
0.408946 0.0411473 -0.19235 102 111 99
0.413461 0.0404143 -0.19499 104 112 105
0.13058 0.0807117 -0.0540983 32 34 29
0.132898 0.0807858 -0.0542682 65 67 63
0.135448 0.0822288 -0.0507955 38 39 36
0.137873 0.0821336 -0.0514373 38 45 31
0.140417 0.0824469 -0.0510001 54 62 43
0.14303 0.0827744 -0.0505358 52 55 41
0.145583 0.0826442 -0.0512918 71 71 62
0.147969 0.0818775 -0.0537325 80 82 72
0.150151 0.0805649 -0.0576075 87 91 81
0.152292 0.0792887 -0.0613784 90 90 81
0.154426 0.0781158 -0.0648704 91 91 82
0.156519 0.0769525 -0.0683301 91 91 84
0.158682 0.0760181 -0.0711858 90 92 84
0.160749 0.0749606 -0.0743569 90 92 84
0.162781 0.0739107 -0.0775022 93 95 87
0.165131 0.0734231 -0.0791866 92 94 86
0.16175 0.0645202 -0.102577 84 82 78
0.159973 0.0588454 -0.117547 35 36 36
0.173402 0.0734808 -0.080348 90 94 86
0.177077 0.074488 -0.0782257 93 97 89
0.180489 0.0750161 -0.0773492 90 95 86
0.183701 0.0752051 -0.0773523 88 92 82
0.186342 0.0747193 -0.0790786 95 99 91
0.188647 0.0738863 -0.0816841 96 99 93
0.181497 0.0641805 -0.106633 19 20 28
0.18293 0.0630187 -0.109983 18 18 26
0.185176 0.0626091 -0.111442 17 18 25
0.187836 0.0625275 -0.112085 14 15 22
0.19036 0.0623008 -0.113096 20 21 28
0.193353 0.0623987 -0.113308 22 23 31
0.196797 0.0627682 -0.112864 16 17 25
0.200202 0.0630361 -0.112686 15 16 23
0.202889 0.0627635 -0.113846 17 18 25
0.205737 0.0625699 -0.114819 15 16 23
0.208174 0.0620968 -0.116479 17 16 23
0.210932 0.0618046 -0.117703 17 16 23
0.213975 0.0616529 -0.118595 15 16 23
0.216951 0.0614333 -0.119659 15 16 23
0.220155 0.061307 -0.120508 17 17 25
0.222796 0.060863 -0.122122 18 18 28
0.226876 0.0611105 -0.122106 19 18 25
0.231944 0.0617641 -0.121156 20 23 31
0.23673 0.0622025 -0.120739 39 44 47
0.24084 0.0622716 -0.121207 111 117 113
0.243008 0.0614697 -0.123708 111 117 112
0.244309 0.0603235 -0.126995 111 117 111
0.246322 0.0594935 -0.129547 111 117 111
0.248704 0.058818 -0.131741 112 118 112
0.250983 0.0581072 -0.134014 110 116 110
0.253654 0.0575418 -0.135959 108 116 109
0.25699 0.0572032 -0.1374 107 115 108
0.260664 0.0569587 -0.138642 111 119 112
0.263853 0.0565318 -0.140297 111 119 112
0.267251 0.056157 -0.141845 113 119 113
0.270437 0.0557011 -0.143577 113 119 113
0.273938 0.0553254 -0.145144 114 120 114
0.277378 0.0549151 -0.146794 114 120 114
0.28051 0.0544047 -0.148665 113 119 113
0.283497 0.0538463 -0.150641 113 119 115
0.285991 0.0531545 -0.152897 113 119 115
0.288288 0.0524156 -0.155249 113 119 115
0.29023 0.0515956 -0.157761 112 118 114
0.293261 0.0510416 -0.159733 111 117 113
0.295707 0.0503481 -0.161986 111 117 111
0.298136 0.0496536 -0.164239 111 117 111
0.301135 0.0490826 -0.166251 110 116 110
0.303995 0.0484777 -0.168332 111 117 111
0.306928 0.0478841 -0.170394 109 115 109
0.310187 0.0473495 -0.17235 108 114 108
0.312579 0.0466449 -0.174624 109 116 107
0.314835 0.0459187 -0.176935 111 114 106
0.319059 0.0455404 -0.178624 106 113 106
0.322519 0.0450148 -0.180587 94 98 102
0.325991 0.0444821 -0.182572 54 63 66
0.330535 0.0441096 -0.184296 105 112 107
0.333755 0.0435153 -0.186406 101 107 102
0.337286 0.0429612 -0.188457 103 109 105
0.340257 0.0423191 -0.190656 105 111 107
0.344234 0.0418125 -0.19265 104 110 106
0.348933 0.0413898 -0.194534 104 110 106
0.3556 0.0412003 -0.196104 103 109 105
0.360378 0.0407422 -0.198096 101 108 104
0.361207 0.0397964 -0.20077 94 102 97
0.367784 0.0395269 -0.202541 97 105 100
0.130537 0.0779346 -0.0691712 89 91 83
0.132603 0.0773392 -0.0710916 90 92 84
0.134833 0.0779875 -0.0698409 87 89 80
0.137092 0.078343 -0.069349 86 88 78
0.13928 0.0780608 -0.0704861 86 88 78
0.141336 0.0771482 -0.0732213 89 91 81
0.143302 0.0759998 -0.0765467 86 89 79
0.145322 0.075168 -0.079067 87 91 83
0.147384 0.074522 -0.081117 87 91 83
0.149366 0.0736896 -0.0836317 94 96 88
0.151229 0.0726262 -0.0867189 93 95 87
0.153148 0.0717751 -0.0892701 92 94 86
0.155061 0.0709629 -0.0917199 92 96 88
0.156949 0.0701487 -0.0941704 91 95 87
0.158821 0.0693475 -0.0965841 92 96 88
0.160858 0.0688539 -0.0982371 92 96 88
0.161693 0.0665248 -0.10439 92 93 88
0.164204 0.0668164 -0.10411 94 95 90
0.167112 0.0675537 -0.102757 94 98 90
0.170602 0.0688946 -0.0999598 92 96 88
0.173613 0.0694594 -0.0990702 159 169 151
0.176414 0.0696698 -0.0990539 103 110 97
0.1791 0.0696797 -0.0995319 93 97 87
0.179559 0.067336 -0.105652 26 28 36
0.180745 0.0658761 -0.109633 22 23 33
0.182232 0.0647856 -0.11272 20 21 31
0.184244 0.064215 -0.114566 15 18 25
0.18677 0.0640909 -0.11536 16 20 26
0.189418 0.0640328 -0.116006 17 22 28
0.192391 0.0641914 -0.116155 18 23 31
0.19547 0.0643749 -0.11626 28 32 39
0.198156 0.0642152 -0.117175 24 28 35
0.200413 0.0637274 -0.118854 64 66 69
0.202769 0.0633011 -0.120393 95 98 99
0.205084 0.0628393 -0.122016 103 106 104
0.207578 0.0624826 -0.123403 105 111 106
0.210333 0.0622673 -0.124474 103 109 100
0.213084 0.0620249 -0.125614 106 112 103
0.21583 0.0617582 -0.126815 101 107 99
0.218946 0.0616686 -0.12763 105 108 100
0.221198 0.0611003 -0.129516 110 113 105
0.222506 0.0600605 -0.132438 109 113 104
0.223916 0.0591018 -0.135171 109 115 109
0.225494 0.0582486 -0.137664 110 116 110
0.2266 0.0572023 -0.140565 111 117 112
0.227606 0.0561448 -0.143476 112 118 114
0.22929 0.0554067 -0.145692 113 119 115
0.231121 0.0547413 -0.147749 113 119 113
0.233425 0.0542704 -0.149393 115 121 115
0.235573 0.053736 -0.151172 116 123 117
0.238243 0.0533948 -0.152551 115 123 116
0.241236 0.0531564 -0.153726 116 122 116
0.243967 0.0528086 -0.155134 114 120 114
0.247024 0.0525579 -0.156353 112 118 112
0.249959 0.0522492 -0.157698 112 118 112
0.252752 0.0518807 -0.15917 111 117 111
0.255141 0.0513773 -0.160915 110 116 110
0.257671 0.0509123 -0.162586 109 115 109
0.260237 0.0504519 -0.164253 107 113 107
0.262246 0.0498305 -0.16623 109 112 109
0.264738 0.0493433 -0.167951 109 112 109
0.266832 0.0487473 -0.169879 106 112 106
0.269461 0.0482894 -0.17155 106 112 108
0.27196 0.0477935 -0.173296 105 111 107
0.273973 0.0471775 -0.175259 105 111 107
0.276983 0.0467954 -0.176808 104 110 105
0.279733 0.0463441 -0.178485 104 110 104
0.28242 0.0458722 -0.180204 104 110 104
0.285019 0.0453761 -0.181969 101 108 99
0.286859 0.0447204 -0.184002 100 107 98
0.289332 0.0441955 -0.185817 102 106 98
0.292205 0.0437446 -0.187517 101 105 97
0.295297 0.0433274 -0.189171 102 105 100
0.298515 0.0429232 -0.190815 101 105 98
0.30219 0.0425882 -0.192367 100 103 101
0.305246 0.0421335 -0.194111 92 97 99
0.307093 0.0414727 -0.196158 43 48 50
0.30876 0.0407884 -0.198233 94 100 97
0.311618 0.0402935 -0.200043 97 103 97
0.314651 0.0398189 -0.201834 99 102 97
0.319697 0.0396265 -0.203276 98 101 96
0.323828 0.0392811 -0.204939 96 99 94
0.325234 0.0385537 -0.207076 94 99 95
0.329785 0.038243 -0.208729 94 100 96
0.130311 0.0730054 -0.0883111 86 88 79
0.132133 0.0723329 -0.0903619 88 90 81
0.134103 0.0728447 -0.0895184 88 90 82
0.135978 0.0724229 -0.0909611 91 93 85
0.13787 0.0720718 -0.0922328 91 93 85
0.139663 0.0712611 -0.0946186 88 92 84
0.141453 0.0705268 -0.0968155 87 91 83
0.14326 0.0699092 -0.0987273 86 89 84
0.145048 0.0692643 -0.100702 86 88 83
0.146784 0.0685148 -0.102925 86 89 81
0.148425 0.0675804 -0.105584 84 88 80
0.150154 0.0669213 -0.107582 86 88 83
0.151875 0.0662794 -0.109536 88 91 86
0.153567 0.0656079 -0.111556 86 91 85
0.155298 0.0650356 -0.11334 86 92 86
0.157051 0.064518 -0.114993 88 91 86
0.158257 0.0631424 -0.118649 86 92 86
0.160321 0.0631534 -0.119063 88 91 86
0.162879 0.0638049 -0.118 90 93 88
0.165484 0.0643989 -0.117089 91 94 89
0.16804 0.0648197 -0.116596 91 95 87
0.170469 0.0649993 -0.116671 93 97 87
0.172354 0.0644988 -0.118311 93 97 89
0.17397 0.0637099 -0.120605 92 95 90
0.175972 0.0633458 -0.121932 92 95 89
0.177683 0.0626871 -0.123925 90 94 89
0.179604 0.0622417 -0.125436 93 97 89
0.181497 0.0617685 -0.12701 93 99 90
0.183352 0.0612617 -0.128658 94 99 93
0.185462 0.0609683 -0.129834 96 99 95
0.187395 0.0605205 -0.131353 97 99 93
0.189364 0.0600975 -0.132819 99 101 95
0.191076 0.0594824 -0.134704 99 103 95
0.192763 0.0588604 -0.136601 100 103 98
0.194607 0.058356 -0.138241 101 105 97
0.196543 0.0579134 -0.139749 101 105 97
0.198777 0.0576552 -0.140864 102 106 98
0.200729 0.0572118 -0.142376 103 107 99
0.202515 0.0566681 -0.144101 106 109 104
0.20479 0.0564057 -0.145236 105 111 105
0.206834 0.0560025 -0.146668 105 111 105
0.208756 0.0555298 -0.148247 107 113 107
0.210523 0.0549778 -0.149988 108 114 108
0.211773 0.054176 -0.152236 108 114 108
0.213057 0.0534111 -0.1544 108 114 109
0.214357 0.0526723 -0.156503 109 115 111
0.215731 0.0519838 -0.158498 110 116 112
0.217283 0.0513857 -0.160307 110 116 110
0.219323 0.0510009 -0.161694 111 117 111
0.22127 0.0505731 -0.163167 110 118 113
0.223429 0.0502269 -0.164483 111 119 114
0.225749 0.0499342 -0.165702 111 117 113
0.228022 0.0496138 -0.166979 111 117 113
0.230611 0.0493979 -0.168066 110 116 112
0.232943 0.0490767 -0.169358 109 115 111
0.235637 0.0488689 -0.170447 110 116 112
0.23795 0.0485203 -0.171802 108 114 110
0.240429 0.0482164 -0.173083 109 115 109
0.242542 0.0477891 -0.17459 109 115 109
0.244288 0.0472488 -0.176298 109 112 109
0.246687 0.0469012 -0.177669 108 111 108
0.248628 0.0464166 -0.179281 106 112 108
0.251209 0.0461073 -0.180597 106 112 108
0.253354 0.0456716 -0.182132 106 112 108
0.255259 0.0451707 -0.183776 106 112 108
0.257808 0.044832 -0.185158 106 112 107
0.260368 0.0444871 -0.186557 106 112 106
0.262767 0.0440953 -0.188037 112 120 113
0.265449 0.0437628 -0.189432 116 123 117
0.267794 0.0433456 -0.190963 113 122 115
0.270012 0.0428964 -0.192547 109 115 109
0.27245 0.0424902 -0.194072 105 112 105
0.274796 0.0420599 -0.195636 101 108 101
0.277651 0.0417256 -0.197072 100 108 103
0.28082 0.0414414 -0.198451 98 106 101
0.282605 0.0408872 -0.200202 98 105 101
0.284736 0.040398 -0.201866 99 105 101
0.28584 0.0397283 -0.203756 93 104 99
0.287923 0.0392341 -0.205422 87 99 96
0.290461 0.0388138 -0.207003 94 105 102
0.294389 0.0386096 -0.208347 97 105 100
0.297361 0.038239 -0.209897 100 108 101
0.297376 0.0374179 -0.211929 108 115 108
0.300528 0.0370699 -0.213462 96 102 98
0.130094 0.0685793 -0.104764 81 84 79
0.13174 0.0681658 -0.106137 81 84 79
0.133434 0.068109 -0.106675 83 85 80
0.135022 0.067279 -0.109023 83 85 80
0.136634 0.0667079 -0.110763 83 85 80
0.138217 0.0660487 -0.112704 81 84 79
0.13988 0.0657597 -0.113786 83 85 80
0.141551 0.065469 -0.114873 83 86 81
0.143164 0.0649771 -0.116425 86 88 83
0.144771 0.064485 -0.117976 86 89 81
0.146268 0.0637257 -0.120134 86 90 82
0.147801 0.0631077 -0.121966 86 89 81
0.149349 0.062554 -0.123649 86 90 82
0.150875 0.0619769 -0.125383 86 91 85
0.152445 0.0615059 -0.126874 86 92 86
0.154146 0.0612713 -0.127836 87 90 85
0.155423 0.0603234 -0.13039 81 92 86
0.157765 0.0610788 -0.129153 87 90 85
0.159769 0.0612148 -0.129307 88 92 84
0.161496 0.0609085 -0.130445 88 92 83
0.163618 0.0611063 -0.13048 87 90 84
0.165702 0.0611955 -0.130764 78 81 77
0.167404 0.060786 -0.132141 102 111 105
0.168982 0.0602349 -0.133825 116 125 118
0.17052 0.0596532 -0.135572 93 95 91
0.172267 0.0592991 -0.136828 86 92 86
0.173885 0.0588131 -0.138367 88 96 88
0.175565 0.0583899 -0.139771 92 103 97
0.177251 0.0579731 -0.141162 98 109 105
0.178854 0.0574837 -0.142705 101 115 113
0.180534 0.0570634 -0.144103 114 134 132
0.182129 0.0565756 -0.14564 145 166 165
0.18372 0.0560899 -0.147172 171 190 197
0.185149 0.05549 -0.148936 176 200 201
0.186605 0.0549215 -0.150632 139 156 148
0.188323 0.054544 -0.151937 94 105 99
0.190132 0.0542227 -0.15313 92 104 98
0.192045 0.0539614 -0.154205 95 107 101
0.193483 0.0533976 -0.155886 97 107 102
0.195304 0.0530708 -0.157095 99 111 105
0.197089 0.0527172 -0.158359 98 112 106
0.198786 0.0523103 -0.159729 100 115 108
0.20057 0.0519496 -0.16101 103 115 110
0.202119 0.0514626 -0.162534 106 119 114
0.203705 0.0509982 -0.164014 107 119 114
0.204906 0.0503494 -0.16584 107 117 113
0.20645 0.0498766 -0.16733 107 117 113
0.207997 0.0494088 -0.168809 109 119 115
0.209917 0.0491095 -0.169976 106 116 112
0.211843 0.0488059 -0.171155 105 115 112
0.213321 0.0483083 -0.172688 103 115 110
0.215632 0.0481525 -0.173607 114 126 124
0.217669 0.0478739 -0.174753 155 170 170
0.219642 0.047562 -0.175963 172 190 194
0.221656 0.0472594 -0.177161 155 173 176
0.223658 0.0469449 -0.178383 132 151 154
0.225792 0.0466705 -0.179543 122 139 139
0.227994 0.0464098 -0.180685 119 132 128
0.230196 0.04614 -0.18185 116 125 122
0.231921 0.0457084 -0.183285 109 118 116
0.234028 0.0453952 -0.184529 102 111 108
0.236026 0.0450423 -0.185842 105 113 111
0.238249 0.0447509 -0.187063 103 112 110
0.24033 0.0444109 -0.188365 104 110 110
0.242263 0.0440245 -0.189742 104 110 108
0.244299 0.0436628 -0.191085 104 110 106
0.246383 0.0433094 -0.19242 104 110 106
0.247835 0.0427905 -0.193997 104 111 106
0.249733 0.042386 -0.195409 103 111 106
0.251833 0.0420281 -0.196758 103 109 105
0.253643 0.0415977 -0.198211 101 109 104
0.255558 0.0411906 -0.199633 101 109 104
0.257843 0.040863 -0.200954 99 107 102
0.260176 0.0405391 -0.202278 100 108 105
0.262531 0.0402131 -0.203612 98 106 102
0.264762 0.039855 -0.204993 94 102 96
0.266274 0.0393508 -0.20655 95 103 98
0.267739 0.0388408 -0.208109 98 106 101
0.268983 0.0382933 -0.209705 97 103 97
0.270603 0.0378192 -0.211216 98 104 98
0.274009 0.0376585 -0.212407 97 103 99
0.27553 0.0371619 -0.213948 95 101 97
0.27526 0.0363732 -0.215757 95 101 97
0.277842 0.0360598 -0.217115 95 101 97
0.129958 0.0655073 -0.116903 80 85 79
0.131442 0.0649742 -0.118508 80 83 78
0.132896 0.0642957 -0.120437 83 85 80
0.134298 0.0634037 -0.12284 83 86 81
0.135672 0.0625303 -0.125194 86 88 83
0.137091 0.0619907 -0.126796 83 86 81
0.1386 0.0618458 -0.12752 83 85 80
0.140133 0.0617369 -0.128167 83 85 80
0.141654 0.0615381 -0.129017 83 85 80
0.143096 0.0610833 -0.130432 83 85 80
0.144524 0.0606072 -0.131892 86 88 83
0.145987 0.0602301 -0.133134 83 86 77
0.147432 0.0598157 -0.134457 90 94 84
0.148834 0.0593192 -0.135956 116 120 101
0.150334 0.0590301 -0.137008 74 80 70
0.151826 0.0587153 -0.138115 80 86 77
0.152975 0.0578129 -0.140476 96 107 106
0.154757 0.0579822 -0.140553 123 139 134
0.15639 0.0578686 -0.141237 135 150 147
0.158031 0.057738 -0.141963 137 158 153
0.159618 0.0575111 -0.142894 138 162 153
0.161194 0.0572554 -0.143889 142 166 158
0.16266 0.0568533 -0.145189 152 174 165
0.164059 0.0563759 -0.146644 158 179 170
0.165625 0.0560936 -0.147697 159 182 174
0.167234 0.0558494 -0.148673 176 200 195
0.168764 0.0555136 -0.149839 196 221 219
0.170321 0.0552008 -0.150959 198 222 222
0.171824 0.0548325 -0.152192 199 222 221
0.173323 0.0544596 -0.153434 187 211 209
0.174597 0.0538925 -0.155061 164 190 179
0.175921 0.0533822 -0.156572 164 190 178
0.176935 0.0526337 -0.158546 162 185 179
0.178053 0.051993 -0.160301 158 182 177
0.179604 0.0516934 -0.16139 160 186 178
0.181327 0.0515123 -0.162252 162 186 178
0.183248 0.0514544 -0.162884 158 184 176
0.184668 0.0510413 -0.164198 160 185 177
0.186132 0.0506587 -0.165453 167 192 184
0.187678 0.0503284 -0.16661 166 190 183
0.189089 0.049914 -0.167924 163 192 183
0.190779 0.0496653 -0.168932 164 193 184
0.191988 0.0491372 -0.170454 165 190 183
0.193082 0.048556 -0.172066 167 190 183
0.194083 0.0479386 -0.173738 166 189 182
0.195226 0.0474095 -0.175244 168 190 183
0.196742 0.0470757 -0.176401 168 190 183
0.198445 0.0468302 -0.177406 166 189 181
0.200212 0.0466076 -0.178374 166 190 182
0.202043 0.0464058 -0.179312 167 190 183
0.203838 0.0461781 -0.180299 166 190 182
0.205194 0.0457541 -0.181621 166 189 183
0.206927 0.04549 -0.182675 165 187 181
0.208762 0.0452607 -0.183677 166 187 181
0.210586 0.0450192 -0.184703 166 187 183
0.212692 0.0448773 -0.185576 182 203 201
0.214655 0.0446694 -0.186561 196 220 218
0.217066 0.0446134 -0.187317 196 221 226
0.219178 0.0444345 -0.188275 198 219 224
0.221167 0.0442024 -0.189323 182 206 205
0.223415 0.0440473 -0.190262 171 193 191
0.225029 0.0436759 -0.191531 167 190 187
0.227023 0.043422 -0.19263 167 190 186
0.228823 0.0431016 -0.19383 160 184 181
0.230486 0.042737 -0.195096 158 181 176
0.232639 0.0425116 -0.196172 154 176 171
0.234233 0.0421207 -0.19748 149 170 166
0.236194 0.0418295 -0.198656 146 167 163
0.238012 0.0414946 -0.199894 132 150 144
0.24038 0.041298 -0.200959 114 128 124
0.242367 0.040995 -0.202169 97 107 104
0.243787 0.0405484 -0.203559 98 107 102
0.245486 0.0401705 -0.204865 97 107 101
0.246913 0.0397284 -0.206246 96 104 99
0.248918 0.0394185 -0.207476 96 104 99
0.250271 0.0389611 -0.208873 96 104 99
0.25166 0.0385143 -0.210256 97 105 100
0.253074 0.0380751 -0.211627 95 103 98
0.254677 0.0376762 -0.212956 95 101 95
0.256333 0.0372872 -0.214276 95 101 95
0.258205 0.0369388 -0.215559 94 100 96
0.258401 0.0362779 -0.21712 93 99 95
0.258093 0.035541 -0.218724 93 99 95
0.259821 0.0351784 -0.220003 92 98 94
0.129852 0.063044 -0.126831 77 83 77
0.131184 0.0622358 -0.128985 77 83 77
0.132458 0.0611877 -0.131652 78 83 77
0.133664 0.0599725 -0.134667 78 81 76
0.134877 0.0590548 -0.137029 78 81 76
0.136149 0.05856 -0.138476 78 81 76
0.137543 0.058588 -0.138806 77 80 75
0.138989 0.0587287 -0.138903 92 97 92
0.140397 0.0586532 -0.139465 100 108 98
0.141699 0.0582199 -0.140785 120 135 123
0.142861 0.0574302 -0.14285 125 146 141
0.14398 0.0566078 -0.144976 128 150 144
0.145317 0.0563518 -0.145916 131 156 148
0.146643 0.0560645 -0.146921 139 162 152
0.147802 0.0554413 -0.148619 142 165 157
0.148925 0.0547869 -0.150376 146 168 161
0.150218 0.0544698 -0.151438 149 172 165
0.151673 0.0544187 -0.15196 153 176 171
0.15298 0.0541068 -0.153014 155 179 171
0.15439 0.053945 -0.153766 158 182 174
0.156055 0.0541237 -0.15384 160 184 177
0.157649 0.0541578 -0.154213 182 206 202
0.15907 0.0539381 -0.155096 193 219 214
0.160408 0.0536071 -0.156201 195 219 220
0.161897 0.0534506 -0.156964 195 220 218
0.163723 0.0536496 -0.157039 195 220 218
0.165531 0.0537855 -0.157248 169 192 188
0.167185 0.0537245 -0.157847 165 190 185
0.168721 0.0535266 -0.158714 165 190 183
0.170152 0.0532188 -0.159794 163 189 181
0.171468 0.0528053 -0.161075 164 190 182
0.172627 0.0522606 -0.1626 165 190 183
0.173592 0.0515687 -0.164395 173 197 189
0.174704 0.0510197 -0.165917 172 195 188
0.17601 0.0506357 -0.16713 173 197 189
0.177281 0.0502281 -0.168384 173 197 189
0.178456 0.0497563 -0.169754 171 195 187
0.179675 0.0493232 -0.17105 178 200 193
0.181085 0.0490257 -0.172101 175 198 191
0.18249 0.0487222 -0.173165 176 201 194
0.18383 0.0483753 -0.174305 176 203 195
0.185234 0.0480675 -0.175378 178 203 196
0.186503 0.0476784 -0.176591 179 203 196
0.187695 0.0472482 -0.177874 179 203 196
0.188641 0.0466871 -0.179375 179 203 197
0.189777 0.0462416 -0.180676 184 206 200
0.191118 0.0459099 -0.181783 184 208 201
0.192786 0.0457435 -0.182618 179 203 198
0.194485 0.0455824 -0.18345 184 206 202
0.196036 0.0453406 -0.184419 182 205 200
0.197503 0.0450542 -0.185462 182 206 201
0.198947 0.0447545 -0.186528 182 205 198
0.200455 0.0444803 -0.187555 179 203 197
0.202077 0.044251 -0.188516 179 201 196
0.203796 0.0440555 -0.189429 179 203 197
0.205632 0.0438992 -0.19029 181 203 199
0.207718 0.0438298 -0.191029 178 200 196
0.210085 0.0438526 -0.191643 178 201 196
0.212066 0.0437122 -0.192509 192 214 212
0.213669 0.0434242 -0.193594 196 220 221
0.215852 0.0433357 -0.194402 195 219 220
0.218266 0.0433115 -0.195134 193 217 218
0.220135 0.0430885 -0.19615 193 217 218
0.221711 0.0427634 -0.197309 193 217 215
0.222934 0.0423256 -0.198617 191 214 214
0.224178 0.0418978 -0.199909 187 211 210
0.225179 0.041401 -0.201284 181 205 202
0.226318 0.040951 -0.202595 171 195 191
0.227796 0.0406018 -0.20378 168 193 188
0.229261 0.0402483 -0.20497 165 190 185
0.229998 0.0396993 -0.206386 164 187 182
0.230747 0.0391631 -0.207777 162 185 180
0.232718 0.0389468 -0.208808 157 180 175
0.235359 0.038889 -0.209677 149 174 169
0.237545 0.0387057 -0.210695 146 169 161
0.239313 0.038415 -0.211832 126 144 136
0.24086 0.03807 -0.213027 98 110 104
0.242099 0.0376553 -0.214288 95 104 98
0.243334 0.0372424 -0.215545 94 103 98
0.24412 0.0367372 -0.216878 95 101 97
0.24488 0.0362342 -0.218199 95 101 97
0.243752 0.0353613 -0.219805 93 99 95
0.243347 0.0346563 -0.221244 93 99 95
0.243768 0.0341265 -0.222529 93 99 95
0.129759 0.0609024 -0.135384 71 75 73
0.130978 0.0600271 -0.13761 71 77 76
0.132058 0.0583449 -0.14151 89 101 98
0.13312 0.0570135 -0.144659 110 126 123
0.134198 0.0560631 -0.147003 120 142 136
0.135324 0.0555003 -0.148537 124 146 140
0.136556 0.0554309 -0.149055 128 153 145
0.137771 0.0552524 -0.149799 132 157 149
0.139012 0.0551367 -0.150418 135 160 152
0.140143 0.0546604 -0.15177 141 163 156
0.141158 0.0538952 -0.153701 143 167 159
0.142238 0.0533657 -0.155151 144 168 160
0.143326 0.0528892 -0.15649 147 171 163
0.144515 0.0526601 -0.157334 150 174 167
0.145701 0.0524141 -0.158213 151 177 169
0.146919 0.0522257 -0.158979 153 178 172
0.148189 0.0521187 -0.159588 155 180 174
0.149411 0.0519074 -0.160404 176 201 199
0.150625 0.0516756 -0.161262 192 216 214
0.151901 0.0515311 -0.161952 193 216 212
0.153328 0.0515899 -0.162255 193 216 212
0.154888 0.0517974 -0.162283 193 217 213
0.156548 0.0520868 -0.162166 182 208 201
0.158327 0.0524723 -0.161881 158 182 176
0.159984 0.0526494 -0.162002 162 186 178
0.161652 0.052798 -0.162188 163 187 179
0.163239 0.0528179 -0.162622 164 187 180
0.164913 0.0529015 -0.162947 165 190 183
0.16659 0.0529566 -0.163334 173 198 193
0.167907 0.0526318 -0.164419 169 195 187
0.169211 0.0522956 -0.165526 166 192 184
0.170303 0.0517688 -0.166973 170 195 188
0.171385 0.0512483 -0.168404 173 197 189
0.172406 0.0506902 -0.169897 176 201 193
0.173488 0.0501975 -0.171269 192 216 214
0.174617 0.049753 -0.172553 192 216 212
0.1754 0.0490565 -0.174269 182 205 200
0.176249 0.0484333 -0.175848 193 217 213
0.17761 0.0481895 -0.176775 192 216 213
0.178624 0.0477055 -0.178109 194 219 215
0.179457 0.0471126 -0.179619 193 219 214
0.180544 0.0466993 -0.180824 193 217 214
0.181963 0.0464975 -0.181679 193 216 215
0.183184 0.0461698 -0.182742 193 217 218
0.184457 0.0458736 -0.183754 195 220 218
0.185842 0.0456395 -0.184667 194 219 217
0.187262 0.0454201 -0.18556 193 219 216
0.188503 0.0451002 -0.186613 187 209 205
0.189738 0.0447773 -0.18767 195 220 218
0.191392 0.044665 -0.188405 193 217 218
0.193109 0.0445718 -0.189119 193 217 215
0.194725 0.0444184 -0.189931 194 219 219
0.195894 0.04405 -0.191065 195 219 220
0.197456 0.0438604 -0.191937 193 219 216
0.198974 0.0436441 -0.192852 188 214 211
0.200954 0.0436182 -0.193502 194 219 217
0.203029 0.0436155 -0.194131 193 219 216
0.204772 0.0434623 -0.19498 193 216 217
0.206365 0.0432411 -0.195928 179 203 204
0.208336 0.0431581 -0.196697 193 216 217
0.210315 0.0430648 -0.197489 193 216 217
0.211559 0.0426942 -0.198651 193 217 218
0.212569 0.0422431 -0.199913 194 219 219
0.214256 0.0420295 -0.200874 193 216 217
0.21544 0.0416421 -0.202053 192 216 216
0.216538 0.0412293 -0.20326 192 216 216
0.217271 0.0407052 -0.204594 193 216 217
0.217797 0.0401273 -0.20598 192 216 214
0.218791 0.039702 -0.207182 172 197 194
0.220015 0.039349 -0.2083 191 214 215
0.221172 0.0389782 -0.209436 188 213 213
0.222322 0.0386078 -0.210569 187 211 213
0.223793 0.0383263 -0.211609 187 213 213
0.225089 0.0379961 -0.2127 185 209 207
0.226154 0.0376069 -0.213847 164 189 184
0.22813 0.0374492 -0.214776 160 185 177
0.229893 0.0372308 -0.215769 158 182 174
0.231074 0.0368682 -0.216894 156 180 172
0.232045 0.0364585 -0.218057 149 173 165
0.233153 0.0360839 -0.219186 143 167 159
0.234044 0.0356635 -0.220347 137 159 152
0.232904 0.0348116 -0.221815 119 142 135
0.231281 0.033885 -0.223297 87 102 98
0.230664 0.0331948 -0.224579 87 97 95
0.12931 0.054571 -0.151849 129 152 147
0.130508 0.055422 -0.150483 133 156 151
0.1315 0.054297 -0.153108 136 160 154
0.132432 0.0530825 -0.155899 138 164 156
0.133455 0.0526213 -0.157172 140 166 158
0.134472 0.0521774 -0.158407 146 170 162
0.135605 0.0522563 -0.158606 145 171 163
0.136719 0.0521941 -0.159089 148 172 164
0.13784 0.0521164 -0.159605 150 174 166
0.138845 0.051652 -0.160879 151 174 169
0.139707 0.0508157 -0.16287 152 174 170
0.14063 0.0502285 -0.16437 155 178 173
0.141639 0.0498919 -0.165383 155 180 175
0.142746 0.0497855 -0.165953 166 193 187
0.143791 0.0495282 -0.166814 189 214 211
0.144856 0.0493117 -0.167598 188 214 211
0.145857 0.0489711 -0.168617 191 216 213
0.146913 0.0487341 -0.169439 191 216 213
0.148052 0.0486326 -0.17001 191 216 211
0.149338 0.0487461 -0.170187 176 203 194
0.150884 0.0492085 -0.169729 163 187 179
0.152446 0.0496235 -0.169374 166 190 182
0.154039 0.050017 -0.169074 166 190 182
0.155645 0.050367 -0.168866 166 190 182
0.157201 0.0505998 -0.168883 169 193 185
0.158728 0.0507554 -0.16905 170 193 186
0.160356 0.0509871 -0.169093 185 209 202
0.161936 0.051125 -0.169313 185 213 207
0.163449 0.0511577 -0.169727 186 214 210
0.164784 0.050987 -0.170503 173 198 194
0.166069 0.0507578 -0.171383 181 206 199
0.167214 0.0503926 -0.172497 186 211 206
0.168292 0.0499712 -0.173706 184 211 206
0.16902 0.049255 -0.175408 185 208 201
0.170161 0.048913 -0.176474 186 211 208
0.171229 0.0485149 -0.177631 191 216 213
0.171965 0.0478647 -0.179201 184 208 203
0.172749 0.047273 -0.180665 192 216 214
0.173692 0.0468173 -0.181902 199 224 222
0.174447 0.0462384 -0.183331 193 217 215
0.175191 0.0456702 -0.184735 194 219 217
0.176323 0.0453769 -0.185697 195 220 218
0.177588 0.0451697 -0.186525 194 219 217
0.178777 0.0449105 -0.187436 196 220 221
0.180148 0.0447598 -0.188182 196 220 221
0.181554 0.0446215 -0.188914 196 220 221
0.182997 0.044496 -0.189631 195 219 220
0.184197 0.044226 -0.190567 194 219 217
0.185306 0.0439059 -0.191578 195 219 220
0.186516 0.0436401 -0.192509 195 219 220
0.187687 0.0433529 -0.193471 196 220 221
0.188968 0.0431202 -0.194357 196 220 221
0.19004 0.0427838 -0.195389 196 220 221
0.191458 0.0426116 -0.196194 195 219 220
0.19321 0.0425858 -0.196805 195 219 220
0.195142 0.0426257 -0.197338 195 220 218
0.196774 0.0425179 -0.198079 194 219 217
0.198249 0.0423341 -0.198926 194 219 219
0.199769 0.0421629 -0.199762 187 211 211
0.201425 0.042039 -0.200543 195 219 220
0.203121 0.0419216 -0.201325 195 219 220
0.204067 0.0415097 -0.202471 195 219 220
0.204948 0.0410793 -0.203636 195 219 220
0.206103 0.0407538 -0.204672 191 216 213
0.207154 0.040393 -0.205748 194 219 217
0.208091 0.0399961 -0.206861 193 219 217
0.208916 0.0395659 -0.208007 193 216 217
0.209882 0.0391883 -0.20909 191 214 215
0.211069 0.0388849 -0.210091 192 216 216
0.212419 0.0386319 -0.21104 189 214 214
0.213636 0.0383365 -0.212034 187 214 213
0.214545 0.03795 -0.213118 187 214 213
0.215808 0.0376694 -0.214096 186 214 213
0.216868 0.0373309 -0.215128 186 213 212
0.218108 0.0370437 -0.216113 178 206 202
0.219764 0.0368667 -0.217004 181 208 207
0.221408 0.0366807 -0.217909 173 198 193
0.223025 0.0364822 -0.218832 165 187 183
0.224793 0.0363159 -0.219736 164 186 179
0.225182 0.0358097 -0.220899 160 184 176
0.224854 0.0351441 -0.222162 157 181 173
0.223233 0.034199 -0.223587 154 178 170
0.222144 0.0334049 -0.22487 149 174 169
0.219227 0.0322355 -0.226343 145 170 165
0.129109 0.0514794 -0.160862 142 168 160
0.130215 0.0525031 -0.1592 145 171 163
0.131122 0.0515729 -0.161352 147 173 164
0.13203 0.0508646 -0.163063 150 176 165
0.132976 0.0504862 -0.164131 149 174 164
0.133941 0.0502349 -0.164954 153 179 171
0.134953 0.0501833 -0.165396 150 176 165
0.13599 0.0501841 -0.165742 153 177 166
0.137008 0.0500757 -0.166299 154 176 169
0.137947 0.0496973 -0.167365 158 179 175
0.138822 0.049156 -0.168734 181 206 201
0.139666 0.0485771 -0.170166 185 211 207
0.140514 0.0480555 -0.171487 184 211 205
0.141421 0.0477075 -0.172482 182 211 205
0.142435 0.0476033 -0.173029 187 213 203
0.143529 0.0476444 -0.173314 185 211 202
0.14454 0.0474955 -0.173949 176 203 192
0.14552 0.04728 -0.174705 155 182 172
0.146535 0.0471229 -0.175358 159 185 175
0.147638 0.0470975 -0.175778 163 189 182
0.14883 0.0471877 -0.175999 163 189 179
0.150135 0.0474112 -0.175992 163 189 181
0.151955 0.0483114 -0.174815 165 190 183
0.153789 0.0491263 -0.173811 170 193 185
0.155221 0.0493351 -0.173876 171 193 186
0.156386 0.0491793 -0.174577 172 195 188
0.157566 0.0490305 -0.175268 175 197 190
0.158959 0.0491114 -0.175574 186 209 205
0.160473 0.0492971 -0.175713 188 213 210
0.161647 0.0490926 -0.176513 188 214 211
0.162621 0.0486835 -0.177652 182 206 202
0.164201 0.0488689 -0.177813 188 211 208
0.165461 0.0487232 -0.178525 191 216 209
0.165875 0.0478078 -0.180482 193 216 211
0.166609 0.0472132 -0.181909 187 209 208
0.167885 0.0470951 -0.182572 188 219 213
0.168974 0.0468149 -0.183493 182 211 203
0.169921 0.0464234 -0.184588 145 167 168
0.170817 0.0460012 -0.185727 126 143 145
0.171857 0.0456934 -0.186687 104 123 118
0.173077 0.0455168 -0.187447 194 217 217
0.174062 0.045172 -0.188462 196 217 217
0.175197 0.0449317 -0.18932 196 219 217
0.176591 0.0448581 -0.189934 198 220 221
0.177589 0.0445224 -0.190935 198 220 220
0.178767 0.044301 -0.19177 195 220 218
0.180194 0.0442247 -0.1924 198 222 220
0.181263 0.0439304 -0.193343 196 221 219
0.182412 0.0436816 -0.194222 198 221 222
0.183835 0.0435816 -0.194898 199 222 223
0.184841 0.04325 -0.195894 198 221 222
0.185739 0.0428651 -0.196959 198 221 222
0.186638 0.0424861 -0.198013 196 220 221
0.187863 0.042273 -0.198848 196 220 221
0.189342 0.0421783 -0.199532 198 221 222
0.19096 0.0421386 -0.200153 196 221 219
0.192484 0.042044 -0.200852 196 221 219
0.193858 0.0418734 -0.201651 196 220 221
0.195321 0.0417357 -0.202415 196 220 221
0.196521 0.04148 -0.203326 194 221 221
0.197586 0.0411676 -0.204303 193 220 220
0.198381 0.040749 -0.205401 194 219 219
0.199154 0.0403285 -0.206495 194 219 219
0.200107 0.0399832 -0.207501 193 217 215
0.200859 0.0395666 -0.20858 193 217 215
0.201857 0.0392457 -0.209553 192 216 215
0.2028 0.038907 -0.210541 194 219 219
0.203706 0.0385589 -0.211537 195 219 220
0.204927 0.0383193 -0.212422 193 217 218
0.20599 0.0380267 -0.213359 192 216 216
0.207376 0.0378376 -0.2142 189 216 216
0.208389 0.037528 -0.215154 188 216 215
0.209714 0.0373147 -0.216022 187 214 214
0.210723 0.0370047 -0.216976 187 216 214
0.211902 0.0367455 -0.217886 186 214 213
0.21339 0.0365725 -0.218729 187 214 213
0.214813 0.0363765 -0.219595 176 203 202
0.216921 0.0363614 -0.220332 176 201 196
0.218517 0.0361988 -0.22119 173 197 189
0.217796 0.0354349 -0.222466 167 190 183
0.216738 0.0346091 -0.223751 167 190 185
0.213836 0.0333575 -0.225264 172 195 190
0.213404 0.0327428 -0.22634 160 185 180
0.21354 0.0322776 -0.22731 156 181 176
0.129128 0.051104 -0.16415 44 56 52
0.130006 0.0503999 -0.165813 40 55 55
0.130931 0.0502285 -0.166467 64 76 78
0.131792 0.0496261 -0.167928 22 32 34
0.132741 0.0496115 -0.168289 28 36 41
0.13354 0.0488259 -0.17008 35 44 49
0.134548 0.0490503 -0.170003 22 28 33
0.13548 0.0488935 -0.170632 19 25 33
0.136255 0.0481774 -0.172281 20 22 26
0.137191 0.0480578 -0.172839 19 25 28
0.137878 0.0471923 -0.174745 17 20 23
0.138744 0.0469057 -0.1756 16 21 25
0.139548 0.046473 -0.176715 18 22 28
0.140329 0.046012 -0.177876 13 17 23
0.141212 0.0458068 -0.17858 26 35 40
0.141867 0.0451267 -0.180118 44 52 59
0.142748 0.0449417 -0.180783 50 57 66
0.14365 0.0447932 -0.181386 15 21 26
0.144536 0.0446083 -0.182052 33 39 47
0.145083 0.0438551 -0.183693 53 59 65
0.145746 0.0433398 -0.184916 10 15 22
0.14663 0.0431839 -0.185526 12 16 22
0.147812 0.0434527 -0.185425 11 15 22
0.148815 0.0434325 -0.185816 20 29 36
0.150522 0.0443227 -0.184703 24 32 38
0.152941 0.0460167 -0.182295 45 56 60
0.153807 0.0456769 -0.183253 78 90 97
0.154247 0.0448505 -0.184996 43 55 60
0.1555 0.044978 -0.185191 49 64 68
0.156974 0.0453155 -0.18506 70 89 95
0.15716 0.0442774 -0.187121 52 68 73
0.158693 0.0446411 -0.18696 54 65 71
0.160588 0.0453116 -0.186337 64 74 85
0.161396 0.0449078 -0.187397 80 99 107
0.161763 0.0441195 -0.189042 70 85 90
0.162953 0.0440816 -0.189532 71 93 95
0.164076 0.0439744 -0.190133 74 96 98
0.165141 0.0438114 -0.19082 73 92 99
0.166307 0.0437224 -0.1914 48 59 67
0.167797 0.043872 -0.191636 92 105 111
0.169235 0.043959 -0.191974 60 70 74
0.169702 0.0433285 -0.19335 55 66 72
0.170277 0.0427957 -0.194577 51 64 70
0.171418 0.0426623 -0.195234 62 75 81
0.172697 0.0426139 -0.195776 80 95 96
0.173488 0.0422421 -0.196769 83 98 98
0.173814 0.0415885 -0.19814 95 108 112
0.174519 0.0411864 -0.199161 91 105 106
0.175536 0.0409764 -0.199922 86 103 105
0.176697 0.0408465 -0.200579 73 90 93
0.178148 0.040872 -0.20104 94 115 116
0.179835 0.0410105 -0.201366 84 101 104
0.180968 0.0408376 -0.202097 107 120 124
0.181901 0.0405576 -0.202962 89 107 109
0.183933 0.0408282 -0.203155 110 125 130
0.185249 0.040724 -0.203818 130 146 149
0.185534 0.0401234 -0.205073 77 92 97
0.187134 0.0401478 -0.205588 98 118 121
0.188956 0.0402585 -0.206015 198 220 214
0.190392 0.0401812 -0.206668 199 222 215
0.190066 0.03934 -0.208171 95 118 116
0.191035 0.0390686 -0.209033 187 211 208
0.191696 0.0386726 -0.210027 195 219 219
0.191893 0.038099 -0.211199 196 219 214
0.193516 0.0380946 -0.211778 176 201 189
0.194647 0.037892 -0.212564 193 221 211
0.1956 0.0376211 -0.21342 189 217 211
0.196301 0.0372601 -0.21436 181 208 201
0.197083 0.0369327 -0.215264 194 217 214
0.198039 0.0366689 -0.216107 192 214 217
0.198598 0.0362723 -0.217066 193 216 213
0.199513 0.0359997 -0.217912 193 216 210
0.200356 0.0357049 -0.218775 192 214 211
0.202019 0.035669 -0.219428 191 214 206
0.203292 0.0355043 -0.220192 191 214 210
0.204337 0.0352671 -0.221014 187 209 203
0.205631 0.0351024 -0.221786 185 206 195
0.206452 0.0347984 -0.222658 182 203 192
0.20794 0.0346831 -0.223403 176 198 185
0.207475 0.0340295 -0.224497 182 200 189
0.206842 0.0333496 -0.225582 176 193 187
0.201914 0.0315733 -0.227267 175 193 184
0.202599 0.0312928 -0.228047 175 193 186
0.208531 0.0323166 -0.228161 171 190 187
0.0762205 -0.0412183 -0.052764 86 135 178
0.0794356 -0.0406123 -0.056459 86 135 178
0.081347 -0.0415116 -0.0554931 86 135 178
0.082609 -0.0433421 -0.0517504 87 137 180
0.0842898 -0.0448029 -0.0492192 87 137 180
0.086531 -0.0456053 -0.0487196 89 137 181
0.0888188 -0.0464197 -0.0482216 89 137 181
0.0909326 -0.0476267 -0.0466202 90 138 182
0.0933778 -0.0483841 -0.0463715 90 138 182
0.0959096 -0.049064 -0.046376 91 139 183
0.0987701 -0.0491006 -0.0482178 92 140 184
0.101931 -0.0483507 -0.0522373 92 140 184
0.105163 -0.0471627 -0.0574049 93 141 185
0.108365 -0.0456763 -0.0633015 93 141 185
0.111204 -0.0449835 -0.06696 95 143 187
0.113779 -0.0451022 -0.0684028 96 144 188
0.116269 -0.0456414 -0.068732 97 145 189
0.118738 -0.0465179 -0.0682012 98 146 192
0.121283 -0.0472134 -0.0681752 98 146 192
0.123852 -0.0481907 -0.0674583 99 147 193
0.126478 -0.0496409 -0.0655923 100 148 194
0.129217 -0.0515138 -0.0627415 102 150 196
0.132019 -0.0522806 -0.0627103 102 151 198
0.134796 -0.0524097 -0.0642638 103 153 200
0.137613 -0.0528583 -0.065042 104 154 201
0.140454 -0.0533366 -0.0657615 105 155 202
0.143353 -0.0539826 -0.0660997 105 155 202
0.14624 -0.0544594 -0.0668544 108 158 205
0.149187 -0.0550636 -0.0673291 107 160 206
0.152052 -0.0553493 -0.0685484 108 161 207
0.154904 -0.055592 -0.0698675 111 161 208
0.158061 -0.0565465 -0.0696049 112 162 209
0.161371 -0.0577106 -0.0689198 112 162 209
0.16493 -0.0592289 -0.0675138 115 165 212
0.168442 -0.0604802 -0.0667469 116 166 213
0.172147 -0.061931 -0.0656087 117 167 214
0.17638 -0.0640916 -0.0630458 119 169 216
0.181057 -0.0667119 -0.0596287 122 172 219
0.185518 -0.068765 -0.0574894 124 174 220
0.188581 -0.0687165 -0.0596818 125 176 221
0.191224 -0.0681491 -0.0628934 128 180 224
0.194271 -0.0681617 -0.0649215 129 182 227
0.198357 -0.0694376 -0.0644807 131 185 229
0.202974 -0.0712371 -0.0630838 132 186 230
0.207262 -0.0725543 -0.0626756 135 189 232
0.212182 -0.0744617 -0.0612127 136 190 234
0.216184 -0.0753139 -0.0617783 138 192 236
0.221554 -0.0774748 -0.0599832 141 195 238
0.227296 -0.0798647 -0.0578644 142 195 238
0.231187 -0.0804139 -0.059116 150 203 240
0.233229 -0.0792956 -0.0633045 154 206 242
0.233158 -0.076428 -0.0704554 152 206 242
0.231659 -0.0725401 -0.0792038 148 203 240
0.231581 -0.070046 -0.0854127 148 203 242
0.233182 -0.0690385 -0.0890249 148 203 242
0.23302 -0.0667279 -0.0947166 150 203 242
0.233565 -0.0650809 -0.0992196 150 203 242
0.234976 -0.0641659 -0.102471 148 201 240
0.237321 -0.063979 -0.104525 148 201 240
0.240695 -0.0645365 -0.105407 146 201 240
0.243704 -0.064828 -0.106709 145 200 238
0.246464 -0.0649496 -0.10827 145 200 238
0.248599 -0.0646636 -0.110431 144 198 238
0.250545 -0.0642776 -0.112715 143 197 238
0.252323 -0.0638103 -0.115091 143 197 238
0.254528 -0.0636347 -0.117022 143 197 238
0.257622 -0.0640161 -0.118156 141 195 238
0.258787 -0.0632404 -0.120892 141 195 238
0.257806 -0.0612419 -0.125245 138 193 236
0.257346 -0.0596228 -0.128999 138 193 236
0.258524 -0.0589947 -0.131373 138 192 236
0.260854 -0.0590365 -0.132843 138 192 236
0.261989 -0.0584297 -0.135134 135 190 234
0.263892 -0.058263 -0.136839 134 190 232
0.265085 -0.0577321 -0.138979 134 190 232
0.266553 -0.0573672 -0.140887 131 187 230
0.267881 -0.0569482 -0.142836 130 186 231
0.268576 -0.0562276 -0.145115 130 186 231
0.269822 -0.0558089 -0.147009 129 185 230
0.272293 -0.0560094 -0.148176 128 184 229
0.279499 -0.0585055 -0.146781 128 182 228
0.285031 -0.0601381 -0.146421 130 182 228
0.286982 -0.0600436 -0.147978 130 182 228
0.29407 -0.0623473 -0.146985 129 181 227
0.0726613 -0.0422989 -0.0400038 86 135 178
0.0782528 -0.0393219 -0.0516816 86 135 178
0.080644 -0.0397155 -0.0522851 86 135 178
0.0823802 -0.0409458 -0.0502353 87 137 180
0.0838136 -0.0427106 -0.04657 87 137 180
0.0858412 -0.0438496 -0.0449609 89 137 181
0.0878265 -0.045189 -0.0427947 89 137 181
0.0899655 -0.0464533 -0.0409318 90 138 182
0.0925472 -0.0471066 -0.0409821 90 138 182
0.0953706 -0.0473686 -0.042229 91 139 183
0.0984688 -0.0470489 -0.0451965 92 140 184
0.101677 -0.0463457 -0.0492495 92 140 184
0.104773 -0.0457089 -0.0530511 93 141 185
0.107748 -0.0452 -0.0564324 93 141 185
0.110594 -0.0449114 -0.059145 95 143 187
0.113428 -0.0444761 -0.0622361 96 144 188
0.11617 -0.044215 -0.0648051 97 145 189
0.118778 -0.044581 -0.0656299 98 146 192
0.121343 -0.0454921 -0.0649897 98 146 192
0.123955 -0.046679 -0.0636547 99 147 193
0.126647 -0.0481434 -0.0616446 100 148 194
0.129452 -0.0497484 -0.0593411 102 150 196
0.132323 -0.0506137 -0.0590311 102 151 198
0.135193 -0.0510071 -0.0599643 103 153 200
0.138086 -0.0514541 -0.0607714 104 154 201
0.140985 -0.0518399 -0.0617439 105 155 202
0.143933 -0.0523732 -0.0623612 106 156 203
0.146832 -0.0526492 -0.0636232 108 158 205
0.149789 -0.0530906 -0.0644891 107 160 206
0.152855 -0.053782 -0.064771 108 161 207
0.155968 -0.0544982 -0.0650202 111 161 208
0.159182 -0.0553529 -0.064974 112 162 209
0.162406 -0.0561254 -0.0651507 112 162 209
0.165812 -0.0571619 -0.0647572 115 165 212
0.169575 -0.0587136 -0.0632513 116 166 213
0.173881 -0.0609874 -0.0602156 117 167 214
0.17812 -0.0629126 -0.0580526 119 169 216
0.182114 -0.0642928 -0.0571576 122 172 219
0.186332 -0.0658605 -0.0559213 124 174 220
0.189916 -0.0664683 -0.0567791 125 176 221
0.193374 -0.0668861 -0.0580504 128 180 224
0.196838 -0.0672993 -0.059339 129 182 227
0.201099 -0.0686067 -0.0588182 131 185 229
0.205629 -0.0701225 -0.0579329 132 186 230
0.209763 -0.0711268 -0.0581237 135 189 232
0.214665 -0.0728525 -0.0569411 137 190 235
0.220118 -0.0750103 -0.0549976 139 193 236
0.227 -0.0783846 -0.0508309 139 193 236
0.233677 -0.0813683 -0.0475522 142 195 238
0.236484 -0.0807749 -0.0510412 148 203 241
0.235136 -0.0766902 -0.0608759 150 205 242
0.231505 -0.0709736 -0.073443 151 206 241
0.229987 -0.0672997 -0.0820789 145 200 236
0.230091 -0.0651126 -0.0879113 146 201 240
0.231275 -0.0638785 -0.0919743 146 201 240
0.232477 -0.0627346 -0.0958122 148 201 240
0.233999 -0.0618918 -0.0990764 148 201 240
0.236331 -0.0616736 -0.101251 147 200 238
0.238933 -0.0616632 -0.103064 147 200 238
0.243079 -0.0627045 -0.103165 145 200 238
0.246912 -0.0635036 -0.103689 144 198 238
0.250634 -0.0642077 -0.104388 144 198 238
0.253073 -0.064083 -0.10639 143 198 236
0.254559 -0.0633839 -0.109251 142 195 238
0.25563 -0.0624707 -0.112391 141 197 240
0.256601 -0.0615431 -0.1155 140 195 240
0.258218 -0.0610362 -0.117945 140 193 238
0.258931 -0.060039 -0.121061 139 193 236
0.259402 -0.0589504 -0.124251 138 193 236
0.260481 -0.0582437 -0.126853 137 193 236
0.262381 -0.0580142 -0.128761 138 192 236
0.26518 -0.0582798 -0.129982 137 190 235
0.266908 -0.0579819 -0.131952 135 190 234
0.269519 -0.0581562 -0.133284 134 190 232
0.270793 -0.0576524 -0.135485 134 190 232
0.271831 -0.0570532 -0.137776 133 189 232
0.272236 -0.0561663 -0.14039 131 187 232
0.272406 -0.0551977 -0.143058 131 187 232
0.27364 -0.0547722 -0.145025 130 186 231
0.276466 -0.0551163 -0.146058 129 185 230
0.282971 -0.0571676 -0.145117 129 182 229
0.288404 -0.0586772 -0.144868 128 182 228
0.292584 -0.0595844 -0.145345 128 182 228
0.293485 -0.0590086 -0.14748 126 181 227
0.0754271 -0.0366972 -0.0490161 86 136 179
0.0774845 -0.0374481 -0.0483702 86 136 179
0.0798836 -0.0378826 -0.0488388 86 135 178
0.0816628 -0.0390778 -0.0467678 87 137 180
0.0828965 -0.0410898 -0.0420539 87 137 180
0.0849323 -0.0422712 -0.0402002 89 137 181
0.0866564 -0.0440467 -0.0364831 89 137 181
0.088803 -0.0454085 -0.0342068 90 138 182
0.091666 -0.0457477 -0.0352629 90 138 182
0.0945342 -0.0460961 -0.0362969 91 139 183
0.0978688 -0.0455133 -0.0402361 92 140 184
0.101194 -0.0447665 -0.0446232 92 140 184
0.104247 -0.0444719 -0.0475675 94 142 186
0.10703 -0.044816 -0.0485543 94 142 186
0.109912 -0.044861 -0.0504387 96 144 188
0.11313 -0.0434679 -0.0565412 96 144 188
0.116035 -0.0428744 -0.0602105 97 145 189
0.118696 -0.0433919 -0.0606314 98 146 192
0.121322 -0.04451 -0.0593642 98 146 192
0.124033 -0.0455847 -0.0582773 99 147 193
0.126824 -0.0466336 -0.0573168 100 148 194
0.129703 -0.0480588 -0.0553751 102 150 196
0.132632 -0.0487522 -0.055496 102 151 198
0.13566 -0.0499106 -0.0543979 103 153 200
0.138654 -0.0503752 -0.0551974 104 154 201
0.141663 -0.050822 -0.0560575 105 155 202
0.144671 -0.0511924 -0.0571283 106 156 203
0.147583 -0.0512053 -0.0591219 108 158 205
0.150653 -0.0517359 -0.0597924 109 160 207
0.153927 -0.0527263 -0.0593309 109 161 207
0.157535 -0.0543411 -0.0573724 111 161 208
0.160825 -0.0550401 -0.0577294 112 162 209
0.164015 -0.0554704 -0.0587606 112 162 209
0.167504 -0.0564112 -0.0585868 115 165 212
0.171684 -0.0584066 -0.0559727 116 166 213
0.176427 -0.0610548 -0.0519424 117 167 214
0.18052 -0.0624631 -0.0508939 119 169 216
0.184183 -0.0631497 -0.0515455 122 172 219
0.188221 -0.0642822 -0.0512225 124 174 219
0.19236 -0.0654549 -0.0508591 125 176 221
0.196633 -0.0667017 -0.0503837 128 180 224
0.200539 -0.0674466 -0.0510431 128 182 226
0.205123 -0.0688857 -0.0502513 131 185 229
0.209841 -0.0703703 -0.0494269 132 186 230
0.214616 -0.0718203 -0.0487391 134 187 232
0.219966 -0.0737363 -0.0471603 136 190 234
0.226008 -0.0761794 -0.0446038 138 192 236
0.233338 -0.0796301 -0.0401538 140 193 238
0.239596 -0.0819463 -0.0380995 141 195 238
0.241859 -0.0807839 -0.0428969 149 203 240
0.240476 -0.0767462 -0.0531191 148 203 238
0.232046 -0.0673977 -0.0731415 145 201 238
0.229051 -0.062766 -0.083885 143 200 238
0.228819 -0.0604656 -0.0900965 145 200 238
0.230124 -0.0594169 -0.0939111 145 200 238
0.231744 -0.0586585 -0.097142 145 200 240
0.235214 -0.0592266 -0.0979863 145 200 240
0.238689 -0.0597834 -0.0988665 145 198 238
0.2424 -0.0604805 -0.099522 145 198 238
0.247162 -0.061834 -0.099092 145 200 240
0.25213 -0.063268 -0.0985822 144 198 238
0.2567 -0.0644064 -0.0986141 143 198 238
0.258968 -0.0641197 -0.100989 142 197 236
0.260585 -0.0634708 -0.103915 142 195 238
0.260746 -0.0620138 -0.108063 140 195 238
0.25978 -0.0599818 -0.113019 139 195 238
0.259279 -0.0582951 -0.117343 138 193 236
0.259769 -0.0572207 -0.12066 137 193 236
0.261562 -0.0568936 -0.122816 137 193 236
0.264098 -0.0569782 -0.12435 137 193 236
0.26757 -0.0575537 -0.125176 137 190 235
0.271657 -0.0584316 -0.125593 137 190 235
0.274676 -0.058752 -0.126809 136 192 235
0.278531 -0.0594827 -0.127472 135 190 234
0.280301 -0.0591836 -0.129535 135 190 234
0.281704 -0.0587247 -0.131785 134 190 232
0.282239 -0.0578765 -0.134507 133 189 234
0.282528 -0.0569454 -0.137289 131 187 232
0.283973 -0.0565772 -0.139316 130 186 231
0.287517 -0.0571743 -0.140132 129 185 230
0.295779 -0.0598648 -0.138437 129 182 229
0.300067 -0.0607409 -0.138999 129 182 229
0.304424 -0.0616297 -0.139574 128 182 228
0.306467 -0.0615103 -0.141329 126 181 227
0.0750771 -0.0343026 -0.0472867 87 137 180
0.0771355 -0.0350526 -0.0465557 87 137 180
0.0791463 -0.0359169 -0.0454569 87 137 180
0.0809682 -0.0370748 -0.0433663 87 137 180
0.0825701 -0.0386206 -0.0399866 88 138 181
0.084532 -0.0398923 -0.0376631 89 137 181
0.0862125 -0.041708 -0.0335506 90 138 182
0.08832 -0.0431438 -0.0308508 91 139 183
0.0911938 -0.0435493 -0.0317044 91 139 183
0.0939146 -0.0442561 -0.0315695 91 139 183
0.0970551 -0.0442403 -0.0338434 92 140 184
0.100396 -0.0437308 -0.037702 92 140 184
0.103378 -0.0439073 -0.0393018 95 143 187
0.106258 -0.044352 -0.0400455 95 143 187
0.109164 -0.0447799 -0.0408568 96 144 188
0.112583 -0.0432772 -0.0476719 97 145 189
0.115852 -0.0416513 -0.0547408 97 145 189
0.118593 -0.0422239 -0.0550126 98 146 192
0.121339 -0.043075 -0.0544736 99 147 193
0.124132 -0.0441617 -0.0532804 100 148 194
0.127011 -0.0450321 -0.0527793 100 148 194
0.129965 -0.0462721 -0.0512525 103 151 197
0.133 -0.047327 -0.0503229 102 152 198
0.136133 -0.0485344 -0.0490179 103 153 200
0.139281 -0.0493298 -0.0489273 104 154 201
0.142309 -0.0493739 -0.050946 105 155 202
0.145453 -0.0499099 -0.0516104 106 156 203
0.148478 -0.0499939 -0.0535109 108 158 205
0.151716 -0.0506991 -0.0537476 110 160 207
0.155199 -0.0518972 -0.052718 110 160 207
0.158703 -0.0529545 -0.0521146 111 161 208
