ply
format ascii 1.0
comment Created by Open3D
element vertex 1361
property double x
property double y
property double z
property uchar red
property uchar green
property uchar blue
end_header
68.6597 -13.3648 446.112 253 255 248
70.0498 -17.6993 440.788 142 160 177
56.2068 -9.09393 437.665 104 111 146
73.6656 -19.6677 441.263 59 74 81
55.6279 -9.55254 436.969 0 5 28
51.715 -11.9767 434.085 53 68 82
78.2798 -18.4788 449.084 57 58 63
59.2888 -12.2574 440.058 48 74 91
72.2195 -14.5416 445.598 60 56 48
75.1328 -22.4765 445.564 31 36 44
79.6763 -19.1679 451.07 42 47 46
69.8148 -15.262 441.437 152 161 163
70.198 -15.9191 441.072 26 38 46
81.6997 -22.3953 453.701 53 71 84
77.9462 -16.5629 451.035 31 32 22
83.2229 -18.1335 453.8 37 33 23
79.647 -26.1203 452.655 36 48 56
71.9925 -17.7214 443.059 138 146 155
68.0155 -24.2404 449.234 44 62 77
55.5492 -8.78421 436.893 118 124 154
70.2721 -15.4366 441.759 152 161 163
71.7016 -18.6868 442.878 164 176 180
75.3464 -15.5415 447.625 37 33 23
59.1985 -10.2061 439.569 16 37 46
73.791 -14.6311 451.838 104 114 120
75.2743 -15.9278 447.578 58 59 51
72.4006 -14.5412 445.253 54 50 42
74.2964 -23.932 435.134 61 55 48
109.71 -51.2552 442.061 43 38 37
67.2004 -12.434 439.341 202 204 201
75.1213 -21.583 445.824 41 46 40
69.675 -16.1463 441.4 151 167 176
60.0622 -10.4916 440.529 0 20 29
71.1585 -13.2925 442.142 18 23 22
61.7072 -10.2463 437.608 29 23 30
68.7233 -12.7378 440.19 31 25 18
78.4661 -16.5947 450.109 37 33 23
74.1928 -23.9051 435.604 169 165 144
70.09 -11.7401 441.38 211 215 219
47.6071 -8.10539 428.837 151 166 171
47.495 -8.79963 428.75 171 192 213
63.6693 -13.7376 443.807 51 76 91
69.6022 -13.8188 444.629 30 24 15
68.7155 -13.8858 440.734 21 26 34
59.6261 -10.1951 440.305 54 64 72
85.4857 -18.9917 456.439 44 38 31
76.195 -23.849 452.675 43 49 52
72.4824 -21.2056 443.122 149 156 151
70.9629 -14.1473 445.241 29 30 20
67.9228 -24.1663 449.163 44 62 77
71.8043 -14.9617 446.384 41 45 30
70.9315 -20.0995 441.767 202 189 184
65.1126 -14.2057 445.052 16 38 54
78.8246 -17.6218 453.302 62 60 42
73.7985 -14.315 444.053 25 23 21
49.0964 -9.56866 431.822 94 105 116
85.3564 -29.1444 456.348 55 67 73
77.2631 -25.4731 453.652 53 62 62
65.2388 -12.2246 442.948 151 150 153
76.2808 -24.3486 450.946 43 53 59
83.8314 -28.1122 454.546 19 31 37
69.3591 -26.0657 450.317 62 84 100
80.7672 -21.1298 451.917 24 35 34
80.7116 -22.7858 456.534 67 78 77
68.4454 -25.3014 449.52 82 95 114
66.9187 -12.3397 439.159 188 190 187
70.8064 -16.3305 443.734 30 34 38
49.2432 -9.59094 432.013 154 166 174
108.34 -51.8184 441.332 99 95 76
74.4887 -15.2306 446.045 151 151 151
84.212 -24.6812 454.768 7 12 22
77.5891 -19.2379 451.599 35 53 52
70.3048 -16.2155 441.185 38 54 65
70.9739 -15.2461 442.099 234 244 236
50.4932 -14.1317 435.919 7 17 25
72.2833 -14.6723 446.425 24 25 13
83.0534 -27.5915 453.829 45 57 65
73.4737 -21.5346 443.515 219 196 183
78.0917 -24.7936 449.904 45 57 65
79.2288 -22.1985 450.785 22 27 35
81.7576 -23.4431 452.752 22 27 37
51.5069 -11.8305 433.861 41 56 70
83.0471 -28.0154 454.839 151 163 169
77.1386 -24.536 450.41 45 57 65
77.3082 -16.3203 448.383 124 124 121
70.6292 -19.2142 442.412 51 56 50
81.6316 -26.4691 456.514 40 45 51
56.8852 -14.1606 438.164 31 56 71
82.8808 -23.8127 452.553 37 38 41
78.0236 -25.0542 451.564 2 11 11
78.4908 -23.8708 451.044 22 34 30
78.7716 -23.48 450.653 45 63 78
77.7946 -23.7605 451.736 25 34 36
77.3305 -25.0311 452.371 18 28 22
77.3607 -23.7985 452.343 41 50 50
78.5015 -23.8729 451.038 8 17 17
79.2875 -20.3413 449.685 12 18 19
77.8204 -23.7878 451.769 32 41 43
77.7514 -23.8383 451.864 30 39 41
78.6934 -23.7958 450.64 12 20 27
77.845 -25.0527 451.775 5 15 12
78.8422 -25.1235 450.729 26 33 31
78.9457 -22.0712 450.807 0 4 3
77.215 -23.3473 452.226 42 57 62
78.6379 -23.8721 450.966 12 21 23
78.2608 -16.5232 450.257 49 44 30
79.2406 -23.8417 450.084 17 25 32
77.3233 -25.0135 452.349 18 28 22
79.5199 -22.1001 450.177 0 8 0
79.5844 -22.1566 450.267 9 20 9
78.6257 -25.1001 450.971 13 20 18
77.706 -17.1221 454.039 63 50 29
79.6706 -22.0823 449.94 22 34 25
79.2324 -17.0139 451.428 95 90 76
77.3376 -23.7643 452.342 40 47 42
76.6135 -24.9481 453.132 28 35 30
78.7243 -20.3982 450.622 4 2 0
78.5641 -23.4883 450.904 43 65 79
77.0872 -24.9433 452.551 33 42 42
79.8168 -22.179 450.041 10 22 13
79.1103 -20.3425 449.914 2 6 8
78.4732 -23.7881 450.889 22 31 33
78.7649 -23.4934 450.672 49 64 71
76.6235 -23.7328 453.091 41 42 32
79.0391 -22.1248 450.853 19 26 24
78.9134 -21.4729 450.76 43 53 47
78.0309 -23.811 451.537 11 19 24
77.2521 -21.9753 452.627 11 28 30
79.6345 -20.5209 449.899 12 18 19
70.8063 -15.7056 444.245 31 37 40
78.6732 -25.1441 451.001 13 20 18
78.155 -18.9338 451.918 29 39 31
77.7345 -16.348 449.878 37 33 16
78.6894 -19.026 451.928 122 144 146
78.7273 -16.7312 450.626 48 44 27
77.0924 -23.3861 452.492 31 48 43
79.5817 -21.4253 449.872 26 43 47
78.4666 -23.8436 451.889 8 19 20
78.8293 -23.5595 450.708 15 23 30
78.8583 -18.8994 449.417 36 39 31
78.7718 -22.0916 451.019 21 33 39
76.756 -21.982 453.21 48 55 39
77.5511 -25.2301 452.556 23 33 27
77.9988 -23.8135 451.485 34 42 47
78.9816 -18.9685 449.501 36 39 31
78.2845 -16.6595 449.032 48 44 27
79.2242 -21.2845 449.962 0 14 24
78.9583 -20.5302 450.787 4 2 0
76.7581 -20.4398 453.165 41 43 26
78.0771 -25.0896 451.6 2 11 11
76.9622 -23.713 453.451 16 20 5
78.332 -20.2877 450.707 19 38 46
79.3001 -20.3334 449.707 12 18 19
78.1038 -17.7285 454.463 35 32 6
78.4682 -16.7958 449.461 43 39 31
78.2242 -22.0759 451.653 26 37 38
77.0276 -23.3631 452.492 33 50 52
79.4051 -17.337 453.048 66 59 39
78.7828 -23.8484 450.713 10 18 25
77.7863 -19.1053 453.04 30 33 13
76.763 -21.9774 453.239 37 39 22
77.7817 -17.1573 454.118 63 50 29
79.4304 -20.416 449.785 12 18 19
78.2596 -15.4973 455.156 41 39 19
78.8757 -25.1558 450.783 15 22 20
78.6041 -20.3391 450.544 4 2 0
76.8422 -22.0288 453.294 33 40 22
76.4394 -21.716 452.862 40 47 29
79.7068 -21.5263 449.927 29 39 43
80.6763 -17.7987 454.131 64 57 37
76.6528 -23.4344 453.144 16 20 5
77.8888 -23.8377 451.794 25 34 36
78.9195 -18.966 449.46 44 46 41
78.8066 -21.3793 450.703 23 36 37
78.2566 -18.6827 449.351 78 80 75
78.4 -21.6958 450.421 40 45 44
78.9502 -22.0917 450.799 25 30 26
78.5073 -23.8774 451.049 8 17 17
78.628 -25.1122 450.962 13 20 18
79.1166 -17.118 452.345 63 57 48
79.3492 -23.56 450.084 1 20 30
77.8658 -25.0539 451.785 5 15 12
77.9538 -16.7901 450.044 43 40 27
79.9609 -21.67 450.134 11 26 31
79.2097 -16.8946 450.997 37 33 16
78.932 -18.6473 449.833 61 62 54
78.8301 -19.0476 449.789 66 68 63
79.59 -22.0313 449.888 10 22 13
76.8268 -16.226 450.421 58 52 43
79.8175 -22.1491 450.015 42 55 43
79.0659 -20.3082 449.92 12 16 18
78.7286 -19.049 451.97 122 144 146
79.0984 -18.9167 449.183 5 10 9
78.9125 -16.8577 451.162 45 40 26
79.4267 -17.3274 453.121 68 61 41
80.0552 -20.8281 451.57 27 33 34
79.4725 -19.1528 451.171 32 33 21
78.6574 -19.1488 452.473 132 150 147
76.532 -15.3241 453.74 152 142 143
79.0863 -19.3771 450.89 72 74 69
79.2063 -23.4931 450.065 8 27 37
78.0807 -17.2018 454.295 60 51 32
79.8741 -22.8304 450.527 59 98 124
79.4933 -15.967 455.548 116 150 134
78.2992 -16.6821 449.053 55 51 34
77.8391 -25.0328 451.765 38 48 42
76.7481 -14.9821 454.13 213 216 206
76.7843 -20.4413 453.185 51 55 38
75.3418 -14.7051 452.764 57 64 57
79.3278 -20.445 450.181 40 44 46
78.7297 -17.4525 454.943 29 20 1
77.7825 -23.4219 451.716 57 79 91
79.5497 -20.6053 450.264 12 16 18
79.5315 -21.3622 449.817 23 40 44
78.7774 -20.0165 450.652 6 13 11
77.266 -20.4471 452.591 61 75 68
77.984 -19 452.748 134 145 144
77.3651 -15.1354 453.588 63 66 56
79.0562 -25.3341 450.918 21 28 26
77.9602 -17.6354 454.315 47 39 15
79.4963 -20.4686 451.209 3 10 5
78.4774 -18.6464 450.426 61 62 52
76.8721 -19.0849 452.295 88 105 97
77.8507 -19.0353 452.742 48 49 37
78.0621 -19.1551 452.919 45 45 31
76.0138 -14.843 453.661 33 35 18
79.4972 -17.7774 453.062 35 31 10
79.2554 -20.3188 450.993 28 32 34
76.5921 -15.2449 453.854 80 73 73
79.2403 -18.859 448.735 40 46 47
76.3517 -14.9489 454.026 33 35 18
79.7634 -19.247 449.606 5 10 9
77.6324 -17.5583 453.866 123 129 102
78.1594 -15.8649 454.565 172 160 130
72.9183 -21.5503 453.674 69 85 94
78.5001 -17.6981 453.767 99 104 80
80.2555 -17.7802 451.722 38 37 28
75.5395 -14.6891 452.362 41 39 19
78.879 -15.9265 454.84 143 148 142
84.983 -19.7566 455.845 125 126 114
98.3439 -20.0999 436.455 95 114 108
103.314 -20.0136 434.765 117 129 120
104.346 -20.8988 434.647 128 131 111
102.297 -21.3118 435.21 116 126 120
99.9334 -21.5652 435.997 108 120 116
101.215 -21.6856 435.719 117 126 126
103.917 -21.6713 435.026 250 249 238
99.9678 -22.1286 436.039 124 131 124
101.68 -22.0887 435.46 126 126 126
100.14 -21.3121 435.912 96 105 107
101.936 -22.1576 435.29 125 125 125
84.2429 -16.9982 446.402 116 116 113
101.963 -22.1839 435.3 139 139 139
102.942 -21.9442 435.286 107 114 112
100.56 -22.6407 436.001 137 138 130
102.192 -21.2837 435.284 116 126 120
103.277 -21.4037 435.188 121 122 112
102.721 -21.99 435.508 117 127 124
99.4312 -19.7965 435.843 241 248 230
105.933 -25.4146 435.332 68 74 75
95.063 -19.2841 437.879 101 111 103
101.337 -22.882 435.534 115 115 110
98.8195 -20.1703 436.243 113 124 84
99.674 -22.3536 436.113 138 148 142
102.612 -20.3709 435.248 142 145 125
101.679 -23.9866 435.636 141 147 148
84.34 -17.0229 446.293 107 107 107
96.265 -21.054 437.319 122 132 126
103.153 -24.6162 434.858 90 95 89
103.169 -24.4769 434.862 186 197 196
99.2083 -19.7535 436.028 241 248 230
85.6729 -17.256 444.939 90 109 98
100.467 -21.3968 435.676 96 105 107
101.164 -22.8463 435.665 107 107 102
99.9268 -21.5895 435.98 114 121 114
104.667 -21.1809 434.787 137 137 123
96.2794 -21.0381 437.409 123 130 123
92.7664 -19.5402 439.299 169 187 186
100.863 -23.4282 438.555 128 134 135
98.8778 -22.1475 436.32 112 112 109
101.084 -21.5614 435.699 104 110 111
102.859 -24.1709 435.054 243 255 255
101.854 -23.0744 435.179 107 107 102
102.692 -23.0881 435.243 88 95 90
100.72 -23.281 435.78 69 93 97
90.4876 -18.3128 440.827 95 121 129
100.014 -22.2426 435.913 123 135 128
87.327 -17.729 443.385 95 98 90
97.3552 -21.343 436.903 121 128 123
99.4607 -19.8094 435.843 241 247 234
96.9537 -20.7717 437.009 116 126 123
93.5448 -19.5857 438.687 139 150 139
119.607 -30.3075 429.103 64 73 73
90.88 -18.4288 440.564 89 116 115
84.5314 -17.3248 446.062 106 110 114
95.9599 -19.1406 437.448 129 132 122
100.692 -23.23 435.82 89 106 108
94.7815 -19.499 438.108 98 100 100
99.744 -22.0813 436.028 113 120 115
102.772 -23.0976 435.178 128 135 130
91.8707 -18.7868 439.911 125 130 126
103.101 -21.9569 435.174 101 106 105
100.512 -23.2139 435.738 104 121 127
92.151 -18.8561 439.652 112 112 109
101.831 -24.1606 435.715 120 137 141
99.0185 -19.7057 436.207 238 246 225
100.966 -23.4776 438.512 119 125 126
101.367 -23.5778 438.558 68 75 73
96.2892 -19.1019 437.288 94 100 89
99.5262 -23.1863 435.94 100 115 120
96.8272 -20.7317 437.123 116 126 123
101.074 -21.5262 435.452 134 142 132
95.9956 -19.1619 437.449 149 150 138
84.3283 -17.3704 446.275 108 117 119
94.6338 -19.4478 438.216 130 130 127
96.9314 -19.2334 436.854 110 116 105
103.787 -21.0359 435.131 248 249 237
86.555 -17.5391 444.095 110 111 103
96.2251 -21.6068 441.64 98 103 102
96.774 -20.7247 437.18 156 158 158
99.4005 -21.4522 436.103 111 111 108
93.8895 -19.0153 438.558 101 113 95
92.3661 -19.4696 439.517 106 113 111
85.8412 -17.3452 444.768 231 250 244
97.7298 -19.8743 436.573 100 110 102
101.386 -23.9066 435.882 145 150 149
99.2253 -21.4064 436.186 130 140 134
100.28 -21.4294 435.848 118 128 132
85.3975 -17.2114 445.202 95 122 123
86.7987 -18.1277 443.822 110 126 126
103.008 -24.3838 434.949 240 251 250
98.4295 -22.6929 436.52 122 132 136
101.482 -22.0312 435.611 117 117 117
101.533 -22.641 435.378 107 109 104
95.4268 -19.8135 437.842 138 140 125
100.923 -23.3124 435.664 87 100 99
101.279 -21.9602 435.739 119 119 119
84.225 -16.9599 446.422 107 120 108
120.367 -30.5604 428.729 106 122 120
89.3233 -18.1992 441.726 119 124 123
103.555 -21.5001 434.993 136 137 127
96.8441 -21.9181 437.164 78 93 100
85.6033 -17.238 445.012 113 126 112
89.1026 -19.2845 441.829 102 117 122
85.0909 -17.1386 445.524 97 121 123
96.263 -19.1078 437.308 104 110 99
91.1548 -19.618 440.373 121 126 125
101.437 -23.6019 438.511 68 75 73
102.611 -22.1375 435.426 86 91 90
102.445 -23.0228 435.376 155 162 157
92.4408 -19.489 439.453 106 113 111
88.917 -18.4781 442.039 99 114 119
101.509 -21.6966 435.56 118 123 119
85.1088 -17.135 445.501 94 111 117
107.596 -25.9434 435.024 68 75 73
100.52 -22.4394 435.806 227 237 229
102.929 -21.3712 435.472 211 212 200
93.9635 -19.8818 438.591 128 144 144
95.0222 -19.6973 438.129 137 139 134
101.921 -24.2114 435.717 68 95 105
96.7631 -21.8812 437.214 78 93 100
95.5909 -19.8024 437.727 135 137 132
91.0382 -18.4094 440.419 98 113 101
85.1642 -17.1493 445.438 105 122 128
100.691 -20.9106 435.597 126 128 123
94.8559 -20.1513 438.146 104 113 113
94.225 -19.9997 438.454 110 112 109
103.127 -21.9971 435.221 147 154 152
93.7322 -19.0512 438.571 125 142 144
94.8761 -19.518 438.021 98 100 100
98.5719 -20.0641 436.267 78 89 78
94.4537 -20.0659 438.252 110 112 109
94.0584 -19.0617 438.54 90 106 104
87.4804 -17.7577 443.242 108 111 103
96.6398 -20.6909 437.274 159 169 166
96.8142 -19.936 437.21 134 153 144
96.0188 -20.9754 437.573 131 143 136
102.434 -21.3439 435.141 98 108 102
101.745 -22.1122 435.434 117 117 117
88.9192 -18.4778 442.037 99 114 119
100.283 -22.2172 435.849 123 130 123
98.4127 -21.649 436.46 98 109 98
95.6604 -19.8094 437.624 81 86 85
108.177 -26.0349 435.35 96 105 105
84.5959 -17.3488 445.992 133 137 141
102.101 -23.8143 438.389 114 115 118
101.824 -23.6706 435.619 121 126 120
109.689 -26.4857 435.161 63 76 75
92.2382 -19.4107 439.665 119 126 124
94.7347 -19.4335 438.104 112 112 109
95.8824 -19.1369 437.525 91 92 80
97.1636 -19.7495 436.804 94 104 112
92.2709 -19.4443 439.595 107 114 112
97.1871 -22.064 437.077 92 105 106
102.588 -24.2579 435.23 217 224 219
95.8351 -20.1608 437.598 91 98 82
94.1279 -21.1613 438.487 85 91 92
92.7836 -19.0076 439.255 93 98 92
97.9142 -20.258 436.701 180 180 177
103.244 -21.5389 435.464 246 246 230
99.1939 -21.4159 436.244 117 127 121
92.7428 -18.9909 439.376 134 148 144
85.7888 -17.3159 444.829 227 239 230
93.8477 -19.6978 438.742 140 145 151
106.287 -25.54 435.141 112 118 119
99.7244 -21.5314 436.104 96 103 96
91.0314 -18.4011 440.438 98 113 101
94.8872 -20.1794 438.071 108 113 112
95.0836 -19.8949 438.087 241 249 224
102.147 -22.9226 435.556 155 157 154
87.41 -17.7447 443.297 95 98 90
95.9849 -19.8515 437.479 252 253 241
84.9256 -17.1583 445.675 93 99 100
84.9254 -17.103 445.707 105 122 128
102.223 -21.2336 435.285 93 103 100
95.913 -20.2498 437.514 103 112 93
96.8115 -21.952 437.165 57 77 91
91.2224 -20.1183 440.203 97 108 109
95.1497 -19.8026 438.072 238 241 221
96.7071 -22.0692 437.176 101 124 131
109.02 -26.2462 435.488 63 76 75
95.3167 -20.7178 437.87 125 136 125
104.118 -24.3966 438.341 95 107 103
100.426 -21.4031 435.704 96 105 107
91.0315 -18.4331 440.397 98 129 133
102.153 -23.7645 438.581 116 132 130
102.076 -23.9237 435.563 240 251 250
86.7651 -17.5885 443.885 108 109 99
94.6797 -19.2375 438.084 111 128 123
88.8151 -18.5518 443.161 137 139 136
86.5005 -17.452 444.13 92 112 113
92.9724 -19.4879 439.143 114 131 123
103.588 -21.5153 434.94 153 154 144
95.2574 -19.6775 438.015 238 238 233
127.644 -27.3437 399.164 36 42 29
131.093 -28.0491 404.513 19 26 8
130.983 -34.8295 400.904 35 56 52
131.827 -24.235 379.425 14 21 14
128.133 -27.5455 398.465 91 95 78
128.279 -27.6388 395.17 46 58 40
127.422 -27.4468 396.469 50 59 42
127.347 -26.297 400.674 31 42 29
132.21 -24.2932 378.932 44 55 44
129.84 -33.2136 394.881 36 48 39
132.592 -27.3496 408.935 30 35 29
127.169 -26.2648 398.489 37 54 30
130.241 -27.0354 396.95 37 49 40
132.548 -34.3502 407.068 53 65 56
128.896 -27.3725 396.079 184 204 190
130.942 -34.9224 400.936 33 44 43
126.561 -27.1398 397.916 15 27 9
131.141 -35.0893 400.684 23 34 33
136.307 -23.4169 374.7 221 234 220
130.993 -29.5224 378.437 64 73 54
129.533 -33.6026 390.947 86 100 91
129.853 -33.0624 395.864 77 94 98
129.561 -28.995 397.043 47 55 34
129.566 -33.0856 395.28 36 48 39
128.748 -30.8901 409.082 18 26 16
126.96 -26.1567 396.702 35 44 27
131.525 -24.4531 379.38 233 241 231
131.762 -28.156 406.53 33 40 22
132.662 -34.4413 406.994 55 65 57
129.675 -33.0552 395.93 36 37 25
126.459 -27.1548 397.208 124 129 109
132.355 -30.487 405.641 50 59 42
130.413 -27.0027 403.278 44 63 57
129.735 -27.9418 396.165 71 77 64
127.719 -27.4953 396.017 46 58 40
130.145 -32.95 398.2 106 112 103
131.041 -32.4834 403.624 62 63 53
133.403 -34.3426 408.761 16 30 23
130.809 -27.9222 404.799 22 28 15
130.481 -24.0815 382.451 96 108 99
131.79 -24.2168 379.267 15 20 14
129.966 -35.7532 395.079 66 78 71
129.202 -35.8829 392.077 24 41 47
129.289 -30.7372 392.044 78 91 77
129.649 -35.2357 395.519 25 62 61
126.921 -26.8616 398.945 181 204 189
129.912 -27.9015 399.667 29 33 18
128.251 -26.5152 398.376 39 47 33
130.77 -23.1046 382.341 169 211 190
130.218 -28.819 402.968 71 75 58
128.047 -27.4063 399.328 20 28 16
131.232 -35.1391 400.741 0 15 18
126.619 -28.8223 366.303 27 37 31
128.616 -33.6111 388.702 82 90 78
126.67 -27.2401 396.887 95 100 80
134.72 -28.0217 379.638 26 33 15
128.918 -29.3624 392.787 50 60 54
131.15 -34.9709 400.75 49 79 88
129.684 -33.0631 395.885 36 37 25
131.081 -29.2023 404.291 36 40 23
129.743 -33.6612 391.555 32 42 34
129.782 -28.6948 403.362 69 73 58
128.759 -28.7231 398.152 47 55 34
127.005 -26.2377 401.13 31 42 29
129.475 -33.0375 395.397 36 48 39
130.711 -27.0413 386.809 41 48 30
128.857 -35.8889 387.802 35 40 34
130.084 -27.8676 402.642 40 46 33
126.487 -24.7882 367.595 32 44 26
132.198 -34.6226 404.902 129 140 129
129.49 -33.4136 392.056 40 54 50
129.577 -35.6934 394.685 45 56 41
131.428 -34.844 402.761 0 16 18
132.5 -27.473 383.566 26 33 15
129.2 -33.333 392.523 32 42 34
129.9 -35.9892 389.769 85 93 83
135.9 -23.83 360.493 186 211 191
129.371 -30.6992 391.843 55 72 62
141.034 -24.7121 360.664 29 34 30
128.18 -27.2147 397.109 203 223 209
132.706 -34.3021 407.513 47 57 49
132.32 -34.5533 405.399 54 68 59
129.21 -30.9351 388.404 58 74 55
132.233 -23.1217 379.33 180 222 201
130.326 -35.5221 397.431 67 78 67
130.839 -30.585 398.856 107 120 108
130.958 -28.069 401.751 100 106 93
128.271 -28.6699 384.598 50 59 42
129.203 -33.3402 392.456 32 42 34
130.17 -27.9099 402.542 48 54 41
132.978 -34.3914 407.35 20 36 36
132.023 -29.9318 407.377 200 214 210
129.369 -33.2928 392.275 16 30 26
130.56 -29.042 404.639 15 18 6
129.865 -26.8432 403.799 54 66 57
126.579 -26.1565 401.767 43 54 41
131.456 -27.2369 402.249 44 63 57
130.698 -29.5973 379.433 57 66 49
128.291 -26.6611 394.554 35 43 29
129.47 -36.2574 391.39 67 74 67
130.639 -28.9356 402.508 71 75 58
129.799 -28.9295 385.177 76 84 70
130.915 -23.2777 391.693 216 228 221
130.308 -35.4773 397.521 4 26 14
130.963 -34.7725 400.931 31 52 48
126.729 -26.1925 399.579 34 49 37
131.163 -27.0786 406.016 54 66 48
132.948 -34.3742 407.414 15 31 31
129.785 -36.3212 391.008 34 52 51
128.887 -27.567 401.676 108 115 97
131.678 -27.8207 405.569 189 203 199
134.925 -25.1934 349.627 37 52 15
129.718 -28.8755 403.405 11 15 0
126.653 -26.1896 399.158 36 59 42
128.85 -30.4709 392.704 55 72 62
129.063 -29.4727 392.594 90 102 93
134.253 -23.8493 364.601 105 125 109
130.903 -33.1035 398.206 47 64 70
131.009 -28.0074 404.576 16 23 5
132.147 -24.5327 379.545 180 200 186
126.733 -26.2824 394.34 44 49 45
129.779 -26.8684 395.11 37 52 40
131.38 -34.8112 402.839 2 14 7
134.897 -22.5867 376.877 227 240 226
131.734 -34.697 403.203 74 82 68
131.01 -28.8728 404.194 204 209 189
129.753 -29.1478 381.285 62 71 54
129.454 -26.849 396.725 92 100 86
131.14 -32.8809 401.228 60 72 52
129.77 -26.9643 393.579 53 72 66
131.881 -34.3291 405.697 35 48 36
130.368 -21.803 380.367 69 74 54
129.309 -35.5613 390.851 32 40 28
130.654 -35.0465 400.514 75 101 93
133.224 -34.246 408.846 30 44 37
131.29 -32.6066 403.383 46 49 37
132.791 -34.3079 407.549 26 38 29
125.749 -24.5301 370.216 29 42 19
131.86 -22.817 379.856 42 57 45
131.26 -30.2097 404.543 66 80 73
126.107 -24.7292 369.018 0 11 0
129.063 -29.3709 392.576 48 56 42
133.134 -24.5984 376.117 233 241 231
133.154 -34.313 409.365 1 26 21
132.68 -24.4332 377.935 49 62 50
131.434 -34.487 403.433 86 99 85
128.682 -24.7292 382.725 249 254 230
130.003 -27.7851 403.338 29 43 24
130.131 -27.9184 399.401 21 27 14
128.166 -26.503 398.509 39 47 33
130.78 -32.6935 401.594 60 72 52
119.385 -27.419 414.918 137 194 207
129.768 -33.5943 391.694 102 117 103
130.602 -27.0463 359.303 225 237 217
129.56 -27.6637 403.822 49 63 44
131.189 -27.9975 405.084 62 74 56
130.23 -27.9331 400.04 103 113 89
127.364 -26.4044 401.351 36 47 46
127.26 -29.8955 363.404 204 219 207
130.601 -24.9976 379.93 50 60 34
133.196 -32.449 409.581 82 90 76
131.375 -34.5203 403.472 28 41 29
131.492 -29.5727 381.812 50 59 42
131.021 -22.6878 381.325 31 46 34
98.0531 -20.5195 376.609 30 50 55
95.9518 -20.3049 378.49 234 246 239
107.176 -22.7723 350.89 213 228 214
94.1932 -20.1898 374.453 79 93 89
93.8059 -20.7456 377.184 63 77 87
107.197 -23.0092 350.503 30 45 31
85.2868 -19.4752 350.907 236 253 255
98.6235 -20.7495 361.618 228 237 237
107.163 -23.1351 351.035 2 17 3
104.961 -24.2332 354.956 234 249 235
106.507 -23.4799 352.045 240 255 231
100.566 -22.1554 356.345 91 108 82
101.297 -21.6043 358.991 197 220 185
100.674 -21.5722 358.46 242 254 247
107.176 -23.0599 350.389 33 48 34
99.0818 -20.6047 384.43 187 201 197
107.198 -22.7882 350.691 215 230 216
93.5719 -20.778 376.834 46 54 59
107.08 -23.1836 352.406 26 41 25
106.185 -21.3495 351.675 255 255 255
100.744 -22.0005 357.944 69 84 68
105.399 -23.9054 353.252 251 255 245
105.359 -23.9751 352.145 226 248 220
107.861 -23.6931 350.698 73 102 100
107.545 -22.7486 350.981 209 227 214
102.064 -18.6346 379.47 208 212 197
97.6322 -20.4421 375.913 53 75 77
105.534 -22.5657 353.437 217 237 210
100.921 -21.6127 357.653 69 91 65
107.185 -22.804 350.308 233 248 234
105.679 -22.2432 354.062 173 192 170
102.033 -19.3457 380.131 25 26 16
96.3828 -20.4212 379.368 185 199 192
96.1086 -20.5481 381.261 245 255 255
109.341 -26.5696 349.575 136 205 237
98.1534 -20.4599 377.355 97 118 116
108.102 -20.4708 366.997 254 255 242
95.6467 -21.1248 380.99 27 39 45
106.491 -23.5216 351.657 240 255 231
95.4465 -20.1591 377.512 61 73 66
106.262 -23.7547 352.316 245 255 242
93.7545 -20.0931 368.326 255 255 255
101.508 -20.0572 379.878 117 123 112
98.9269 -20.6108 363.521 198 211 197
106.291 -23.8435 351.489 240 255 237
95.4074 -21.0034 380.114 196 211 227
101.959 -19.298 379.845 25 26 16
107.179 -23.3018 349.899 97 112 96
97.3245 -20.3307 375.7 208 227 221
101.229 -21.6427 357.801 224 251 208
101.797 -20.8826 389.075 134 150 150
97.7967 -20.4099 376.087 202 219 225
106.398 -23.3523 353.26 217 237 208
106.134 -24.5353 352.276 48 63 51
98.5809 -19.894 377.477 19 61 79
107.204 -22.786 351.967 224 239 225
91.1405 -19.7121 374.728 9 19 27
106.674 -20.4832 350.925 214 241 213
98.5752 -20.6452 361.305 221 233 226
94.1222 -19.9798 374.416 187 199 192
85.6634 -19.4178 356.508 218 232 228
106.778 -23.8426 352.086 239 250 235
106.481 -23.5607 351.949 208 225 201
100.773 -21.732 356.742 73 94 73
98.2072 -20.4631 377.202 225 242 248
98.3942 -19.9885 376.763 109 180 216
106.297 -24.0508 350.292 186 201 185
94.1623 -20.8055 377.799 14 28 38
98.6023 -20.4179 361.435 213 223 215
102.129 -19.5115 380.996 100 113 114
105.728 -21.6231 352.754 209 229 204
94.3796 -19.4466 366.547 120 165 192
85.2044 -21.3746 349.865 56 87 102
105.65 -22.2192 354.1 166 185 163
106.182 -21.3458 351.287 255 255 255
105.369 -23.9025 353.474 238 255 230
106.462 -23.4616 352.35 211 228 202
106.762 -23.7601 352.776 234 248 229
96.0421 -19.7366 374.108 30 38 56
98.8269 -20.4469 362.494 211 221 215
105.647 -22.4719 354.013 219 239 212
106.177 -21.3959 351.471 243 255 238
109.899 -26.7822 344.875 12 66 80
106.633 -24.0283 352.149 72 86 77
101.449 -20.0439 379.576 134 140 129
101.264 -19.9463 378.694 174 180 167
106.272 -24.764 350.539 65 79 70
97.7395 -20.8442 365.485 246 250 254
110.6 -23.992 357.195 36 62 39
106.467 -23.4586 354.314 204 221 197
106.511 -23.5116 351.757 240 255 231
107.16 -22.7635 350.515 213 228 214
106.634 -23.7864 352.408 255 255 255
102.089 -19.3858 380.435 24 34 31
106.248 -24.935 348.961 99 113 106
96.8939 -20.2822 374.603 208 227 221
110.284 -25.0284 359.967 35 69 55
105.665 -22.2621 354.646 198 217 195
105.52 -22.6189 353.59 230 250 223
93.2091 -19.8845 372.285 212 224 220
102.06 -19.3894 380.323 24 34 31
112.799 -25.1154 342.04 43 65 53
96.4104 -19.2458 371.767 167 188 184
98.8339 -22.0277 369.791 223 228 227
106.895 -23.384 351.519 187 203 184
75.8661 -23.6306 350.011 173 213 230
77.3022 -18.8497 347.306 63 85 85
77.8049 -18.8746 348.232 82 107 104
76.1982 -21.5113 350.418 52 29 42
80.9995 -19.234 354.085 186 210 212
76.5727 -21.4172 350.991 73 36 54
80.0817 -19.1281 352.691 206 228 228
77.0422 -21.3978 351.666 72 52 64
75.9931 -20.8985 350.244 185 191 192
79.7544 -19.1334 352.117 177 199 199
78.605 -18.8199 349.633 61 79 76
80.1385 -19.1487 352.767 206 228 228
76.9592 -19.6699 351.729 152 159 154
80.8709 -19.3771 353.997 42 53 54
76.8355 -19.6798 351.543 152 159 154
76.4729 -23.4703 350.836 38 58 72
75.9314 -23.5792 350.047 38 58 72
76.0348 -21.1506 350.124 56 36 48
80.7861 -19.1579 353.209 226 238 244
78.1339 -18.7914 348.799 61 79 76
75.8288 -21.5235 349.823 48 25 38
75.7718 -22.1459 349.863 185 201 201
74.8727 -21.207 348.42 70 35 50
88.9299 -25.126 314.878 252 255 255
76.35 -21.1622 350.634 68 36 52
76.1778 -20.8125 350.358 174 186 182
92.1551 -19.2646 365.197 255 255 255
76.6714 -19.4952 351.29 157 166 166
84.6123 -18.4006 357.095 39 42 32
73.9637 -19.6653 342.019 176 200 200
75.2752 -22.2393 349.101 196 195 200
77.7224 -19.2752 348.585 42 53 54
78.7893 -18.915 349.593 236 244 249
76.1432 -23.5671 350.347 93 133 150
76.7796 -20.8691 351.443 180 186 187
77.5951 -19.0445 348.362 187 209 209
65.2746 -20.0683 317.827 47 66 76
77.0535 -19.5011 351.879 157 166 166
81.8096 -24.4615 314.241 13 66 87
84.5154 -19.0196 360.194 243 253 247
80.5337 -19.0116 353.059 87 112 107
65.4798 -20.2998 317.129 85 99 109
74.8932 -22.5387 348.445 79 56 67
81.9354 -18.869 355.212 180 199 207
73.3495 -23.0371 345.639 227 239 245
74.1971 -22.8978 346.826 219 231 237
63.0709 -20.0573 313.377 47 66 76
84.7184 -19.032 360.578 226 238 231
76.6998 -22.0021 351.201 177 189 193
78.2587 -21.2886 353.437 73 36 54
92.7999 -19.0273 361.666 255 248 254
86.357 -19.128 363.571 60 67 62
84.197 -19.7318 361.264 182 221 231
73.9626 -23.2978 346.216 38 58 63
90.3538 -19.4052 370.365 42 40 36
91.2422 -19.9153 363.962 255 254 255
92.6807 -19.0952 363.553 255 245 246
77.0784 -21.6425 351.75 151 183 180
77.9488 -19.2141 348.899 78 102 104
68.062 -20.8003 323.891 16 57 80
81.8287 -24.5158 314.266 17 70 91
68.9828 -20.7398 326.43 46 90 112
73.9845 -23.0362 346.639 12 24 30
80.4964 -19.0875 352.617 234 239 245
81.8286 -24.5158 314.266 17 70 91
92.8688 -19.1848 365.221 228 217 212
86.1381 -18.9782 363.035 248 248 243
83.4252 -18.9266 358.319 255 255 255
92.6953 -19.1557 365.709 239 221 216
64.6788 -20.9302 317.019 16 57 80
89.5602 -22.7337 338.542 255 255 255
77.7266 -18.4786 347.572 252 255 255
92.776 -19.2906 366.181 252 189 211
63.4971 -20.2233 313.011 60 74 84
85.144 -19.0746 361.265 255 255 255
84.0887 -18.6904 356.002 223 233 227
75.5031 -21.0051 349.582 136 133 137
85.0869 -23.4689 321.163 223 234 221
64.6494 -20.8769 317.282 62 103 126
95.2197 -22.5685 317.577 216 240 216
95.2857 -22.2412 325.275 206 230 208
74.9758 -19.0421 336.031 63 75 68
60.6619 -19.34 310.654 207 229 231
91.7003 -19.2003 364.454 93 97 101
89.5605 -22.7086 338.607 242 247 246
76.4608 -18.4156 345.557 224 243 251
90.658 -17.4797 353.519 255 255 237
70.5177 -19.5187 323.314 170 186 186
91.7001 -19.2053 364.416 43 47 51
94.6241 -22.0266 326.094 228 253 226
91.2242 -19.9299 363.824 255 255 255
92.6906 -19.0486 362.088 255 254 255
92.6808 -18.9796 360.855 255 248 254
66.8184 -20.8539 321.373 16 57 80
81.9243 -18.9255 355.198 113 131 144
78.7852 -18.0248 346.665 83 89 80
82.591 -23.9035 316.797 163 206 217
91.1808 -19.8449 363.652 52 54 54
75.4236 -22.6494 348.37 207 225 240
93.1158 -20.034 366.009 255 233 237
80.4925 -18.1338 350.072 7 10 0
83.2219 -18.9009 357.953 255 255 255
73.5179 -23.2593 345.383 35 55 67
75.8406 -21.7689 330.423 39 81 101
89.1174 -23.1248 333.59 234 236 236
95.6558 -22.6827 317.279 229 253 231
92.242 -19.8246 365.384 255 244 246
92.0993 -19.3666 365.2 169 175 176
94.381 -21.9967 327.19 206 231 202
90.2766 -19.4517 370.374 220 227 222
86.4156 -18.9541 363.562 42 40 36
92.5823 -19.0521 362.245 223 199 205
72.5334 -23.145 344.061 202 220 237
83.0785 -18.5065 359.089 149 150 153
90.3469 -18.2143 349.592 236 230 221
71.8356 -20.6838 328.196 93 114 123
92.0842 -19.3562 365.088 219 225 226
91.7972 -19.2485 364.687 249 253 255
89.6285 -19.3894 369.271 211 218 213
97.5125 -26.0688 289.675 93 102 102
90.9202 -18.1007 355.16 160 162 145
79.0166 -18.9332 347.067 70 82 90
82.254 -18.8522 355.861 251 255 255
84.8827 -23.8871 317.398 245 237 226
91.6504 -17.8602 352.873 152 160 146
68.3535 -24.5907 338.147 118 182 224
55.0029 -17.7897 302.372 183 177 168
57.0724 -18.2072 305.13 216 218 203
68.077 -24.9722 337.456 33 40 52
68.0752 -24.7072 337.907 123 182 222
54.3055 -20.168 294.791 12 28 28
56.4523 -18.2402 303.813 230 232 217
77.7406 -18.3513 348.24 73 88 95
73.9645 -18.189 341.584 85 100 107
46.4659 -18.2107 294.097 56 83 82
69.9153 -17.9982 334.381 74 82 91
69.924 -17.9994 334.392 51 59 68
68.2284 -24.629 338.176 121 171 200
52.9387 -20.2695 290.271 90 100 92
59.3325 -16.6294 309.489 105 105 91
68.2549 -24.8472 337.718 6 35 64
53.5361 -18.0428 298.685 91 90 79
50.6581 -18.1557 292.04 224 230 219
60.7273 -17.9294 313.611 229 224 210
59.6468 -16.6134 310.223 112 111 104
75.778 -18.859 339.351 179 191 184
58.3075 -16.0871 308.848 204 211 206
54.3167 -20.2119 293.518 102 112 106
76.5182 -17.446 344.628 254 255 252
66.9608 -18.0784 329.93 65 77 68
52.2286 -20.3044 290.369 33 49 49
51.868 -17.0587 290.828 245 250 244
76.4536 -17.4353 344.501 254 255 252
52.9823 -16.8399 293.762 255 255 255
50.2363 -17.7645 292.488 219 212 196
68.3373 -24.7976 337.793 0 24 53
56.3436 -18.3905 303.74 220 225 221
55.9675 -17.6922 298.357 102 104 101
78.3509 -19.3158 336.484 223 241 240
67.861 -19.6169 332.38 13 28 42
75.6797 -18.8708 339.16 171 183 176
56.78 -18.2141 301.057 245 252 247
76.5667 -21.3052 345.219 47 81 95
75.9706 -17.378 344.803 255 255 243
75.6036 -18.7949 339.326 135 142 140
75.6854 -18.9299 339.389 0 0 0
55.3412 -17.8827 295.767 119 119 116
75.5518 -18.7217 339.366 89 105 103
50.5412 -17.8552 286.166 138 140 137
75.6624 -18.9311 339.34 0 0 0
51.0643 -19.152 309.04 171 212 224
76.3172 -17.4127 344.246 248 255 246
76.128 -17.3975 345.078 239 240 221
39.1181 -20.446 292.79 41 83 92
54.3901 -18.4975 295.035 39 49 46
54.1003 -16.9176 296.212 207 212 206
75.7725 -18.3396 340.217 230 226 220
52.6793 -18.464 291.245 39 49 46
75.3829 -17.3995 339.462 197 199 199
75.8533 -18.943 339.247 0 13 3
57.9952 -16.6729 303.924 255 255 252
38.0265 -20.4706 291.198 41 83 92
75.8734 -18.9311 339.268 0 3 0
73.0451 -17.548 341.516 45 52 45
68.2912 -18.1108 328.322 221 214 194
76.6809 -17.4539 344.889 245 246 225
66.6272 -17.6295 305.464 26 40 50
67.8378 -18.0615 309.055 105 131 150
75.5657 -18.7245 339.405 89 105 103
45.3817 -18.9418 298.828 201 223 223
75.9843 -18.5376 339.342 4 12 2
72.5749 -17.4922 340.798 36 46 38
57.2891 -21.2414 297.298 94 104 108
75.7034 -17.3229 344.306 251 252 233
55.3008 -21.5367 292.918 92 103 104
71.6352 -17.3779 341.089 199 211 191
29.3727 -15.0851 263.871 59 69 75
36.1259 -14.5501 275.57 45 54 56
36.6737 -18.0502 277.821 199 230 247
49.7933 -16.7503 286.091 28 49 47
35.3886 -14.7818 273.725 102 140 155
37.6879 -16.9967 279.607 198 220 222
32.2865 -14.4116 271.315 237 244 242
45.6732 -16.1076 280.99 72 83 72
44.7047 -17.3071 280.704 41 53 57
37.167 -14.7889 276.9 92 130 145
35.502 -17.0054 275.469 25 43 60
52.5275 -21.951 276.256 0 21 24
51.2233 -16.3304 288.472 0 24 28
31.9751 -14.6498 267.909 67 105 118
32.5205 -14.3297 271.765 69 75 64
38.5663 -16.9345 280.863 167 198 202
53.0862 -15.0418 298.613 255 255 255
41.5269 -18.0116 275.881 212 239 242
30.695 -14.2469 268.972 27 33 22
42.0725 -18.4638 275.646 20 36 47
30.6637 -15.8396 268.471 202 224 224
51.2823 -16.3286 288.719 18 42 46
52.4799 -22.1117 275.6 0 22 25
32.2976 -14.3516 269.693 249 254 248
24.2043 -15.0969 255.048 73 91 104
49.7605 -16.7563 285.981 31 52 50
37.7419 -16.9808 279.588 137 168 172
32.8304 -15.7833 271.786 178 216 218
42.4342 -18.3453 276.622 40 56 65
37.9446 -16.7835 279.53 25 43 60
27.5867 -15.0583 260.994 95 110 117
33.9781 -13.8337 276.123 197 198 203
49.8467 -16.1199 286.125 60 77 81
31.3433 -14.3492 266.356 252 255 255
38.7506 -15.1033 272.099 84 92 78
45.7913 -16.3329 282.658 71 81 73
37.9808 -15.7735 270.423 56 64 52
42.6285 -18.0482 277.662 245 255 255
26.7914 -13.8993 262.205 197 200 209
42.3481 -18.4446 277.02 75 100 97
31.678 -16.0445 269.864 39 65 52
40.6873 -14.419 282.041 187 198 199
39.2645 -16.8825 289.271 187 230 232
35.7377 -16.9665 275.868 25 43 60
35.5134 -15.8816 276.044 69 114 115
45.7337 -16.0937 281.566 78 89 78
51.7156 -16.4968 288.497 61 78 73
37.0489 -16.8014 278.289 25 36 37
45.6307 -16.3458 282.349 93 103 95
31.1944 -15.0666 267.142 95 105 111
33.7828 -13.5591 276.418 2 0 1
45.6467 -16.4264 280.958 33 47 28
39.6748 -16.7667 289.686 196 230 228
45.1728 -17.1142 281.193 86 97 96
33.6771 -14.4468 273.726 22 30 18
33.7107 -13.8126 275.647 197 198 203
38.5163 -15.3645 280.82 175 226 246
44.719 -17.111 280.715 68 79 78
45.5368 -16.4054 281.092 18 31 19
45.1765 -14.6784 290.153 182 193 194
25.8322 -15.5046 260.624 52 70 69
35.8247 -14.4321 275.739 244 250 237
51.7596 -16.4561 288.808 51 65 61
45.2525 -17.1211 281.137 61 72 73
48.6212 -15.0451 285.887 88 101 100
49.8884 -21.7329 272.132 0 20 21
51.1656 -16.8811 288.335 82 104 116
31.752 -14.3785 267.052 252 255 255
39.7359 -16.998 289.797 39 91 108
45.9484 -16.3762 281.961 59 73 54
39.8767 -16.7499 289.793 4 36 37
39.5266 -16.8708 289.629 148 191 193
45.8498 -18.6199 281.156 48 74 82
39.8069 -17.0544 289.955 180 220 239
45.2474 -17.0848 281.136 50 61 60
39.2161 -17.2903 289.26 43 82 90
33.1258 -24.6954 233.526 36 53 48
39.0529 -17.5789 271.282 44 74 87
29.8416 -14.2494 265.558 249 254 248
36.8235 -16.7801 267.904 219 227 215
49.3968 -15.8506 287.881 72 86 79
32.1299 -13.5658 271.504 225 226 214
45.5918 -16.3715 281.996 60 70 64
26.7232 -15.1801 262.093 164 185 181
45.6302 -16.3478 282.204 71 81 73
47.0443 -14.7933 293.598 173 184 185
51.4833 -16.3599 288.973 74 94 80
45.8077 -16.4171 281.327 3 17 0
44.3195 -17.2481 280.157 44 57 56
52.9755 -14.851 298.724 191 205 198
49.7973 -18.7799 272.092 48 72 76
29.8323 -14.2868 267.532 22 30 18
44.6729 -16.9762 280.756 202 213 212
49.0757 -17.2738 287.093 83 95 91
51.2781 -16.831 288.788 53 76 85
43.5663 -14.6253 287.238 156 167 168
32.8063 -15.7846 271.971 202 224 224
30.542 -14.2023 268.655 27 33 22
38.9162 -14.6178 280.079 255 255 255
52.8793 -14.8597 298.865 231 245 224
35.2838 -13.9147 278.097 206 207 212
39.1833 -17.1485 289.274 199 232 237
52.8495 -14.8423 298.189 189 203 196
39.7834 -17.0232 289.846 30 82 99
45.6159 -16.4438 280.782 3 17 0
45.8783 -18.5985 281.251 63 89 97
38.5855 -14.628 279.443 235 247 255
33.8801 -13.8661 275.875 228 230 230
48.4865 -18.1682 285.416 57 69 65
42.4838 -18.5488 277.242 213 242 240
39.7279 -17.4621 272.917 66 96 109
49.1659 -17.0186 287.237 104 114 108
51.6609 -16.9281 288.799 59 80 78
51.5076 -16.3317 289.522 15 30 37
39.6322 -17.1015 289.835 199 232 237
39.6771 -17.0489 289.842 172 212 231
52.7001 -15.0676 298.12 25 41 39
52.4084 -15.0439 301.09 8 15 10
40.7733 -17.6431 292.346 102 136 136
36.5344 -17.02 268.602 53 69 78
50.0162 -21.7222 272.335 3 31 38
48.8161 -18.0291 286.462 67 78 77
44.4883 -18.0089 280.554 35 49 59
53.0584 -15.249 298.613 234 247 246
34.6411 -17.117 261.63 83 90 74
32.9507 -14.9824 258.559 59 64 44
33.1099 -15.2284 259.205 51 54 34
30.2853 -17.1385 254.543 231 238 220
9.53679 -13.7791 231.107 241 244 236
35.6142 -13.9937 263.155 255 255 245
34.4787 -17.1924 261.001 83 90 74
34.4215 -17.7681 261.413 225 239 230
35.5824 -14.5001 263.131 231 234 214
29.8219 -12.9542 255.2 18 16 0
32.9876 -14.2529 258.516 50 52 37
26.5107 -13.3007 248 189 187 165
35.1115 -14.3047 262.041 216 218 203
32.9669 -16.1158 258.89 26 28 11
35.6978 -13.9896 263.462 179 180 168
35.3803 -16.2389 262.861 39 45 32
35.4556 -16.0361 262.868 40 48 36
35.3607 -13.5239 262.459 67 67 51
34.7466 -17.5733 262.213 110 118 108
35.2854 -14.2837 262.296 36 37 25
32.3742 -17.5747 258.357 237 249 240
34.582 -17.7321 261.395 83 90 83
34.5243 -17.2232 261.015 54 61 45
32.8789 -14.2203 258.672 103 105 90
32.9702 -15.2541 258.701 34 37 17
34.3818 -16.8714 261.211 58 64 51
32.2475 -17.6191 257.979 237 249 240
34.704 -14.3007 261.643 76 77 65
35.4482 -14.4926 262.524 255 255 239
34.697 -15.3894 261.328 59 62 42
35.5325 -15.3554 263.195 36 39 19
32.4306 -17.7166 257.882 69 77 65
35.0441 -14.0989 261.878 101 102 90
37.5402 -15.781 264.526 142 147 141
22.0463 -14.09 250.99 228 255 255
37.3668 -17.9361 264.711 74 85 84
29.2589 -17.189 252.468 245 243 225
29.5591 -12.9524 254.588 31 32 9
34.8692 -15.3321 261.979 76 79 59
34.543 -16.301 261.074 102 106 89
34.1447 -17.8971 260.505 186 205 196
35.4839 -15.4362 263.006 225 230 208
35.3785 -13.5139 262.543 67 67 51
32.8737 -17.7358 258.716 244 254 246
35.6112 -13.6391 262.916 245 245 229
11.073 -13.7993 230.445 109 120 121
34.8391 -14.31 262.441 74 76 61
37.5059 -17.4542 265.268 84 93 93
13.5506 -14.7187 235.449 86 80 103
38.6682 -17.2809 267.665 213 237 241
34.6941 -16.2416 261.64 52 56 39
37.4119 -17.8425 265.137 98 107 107
2.88178 -13.6356 216.461 71 82 83
37.448 -15.4678 264.986 251 255 250
37.4894 -15.4595 265.143 249 254 248
29.385 -17.1138 252.97 254 250 233
34.753 -17.6917 261.963 84 92 82
35.3673 -15.788 262.688 233 240 222
37.452 -15.4372 264.959 255 255 255
34.8814 -14.3653 261.43 64 66 49
34.6525 -16.2739 261.273 43 47 30
33.1156 -15.0055 259.144 78 83 63
32.4047 -15.3062 257.182 46 49 29
35.4373 -13.5315 262.886 74 74 58
37.4988 -15.5002 264.891 242 247 241
35.4288 -16.5484 263.168 211 219 194
24.9198 -14.8015 226.693 123 125 108
26.4942 -18.0949 259.924 28 75 92
30.4494 -17.0927 254.964 231 238 220
32.9319 -14.2338 258.681 135 137 122
33.0197 -15.8458 259.028 82 85 65
8.71724 -14.0773 225.627 225 240 245
35.1226 -17.6002 262.237 212 220 210
34.4992 -17.7594 261.65 219 233 226
14.7467 -13.9907 238.19 248 255 255
34.7742 -16.2777 261.669 41 45 28
35.6193 -13.976 263.192 255 255 255
32.137 -15.3473 256.324 46 49 29
35.1796 -16.7226 262.225 216 223 205
37.4011 -17.6091 264.467 82 91 91
35.4099 -14.9666 262.619 207 209 194
27.3066 -13.3591 249.951 182 180 158
34.7183 -16.3312 261.121 46 50 33
34.7569 -15.4215 261.047 51 54 34
39.6539 -20.0352 268.371 42 59 63
34.6385 -15.4055 260.998 52 55 35
35.5026 -13.6354 262.482 245 245 229
29.7391 -13.8964 265.711 241 244 236
35.0495 -14.3438 261.962 102 104 89
35.401 -15.3832 262.689 45 48 28
35.395 -15.3482 262.654 39 41 24
35.3859 -15.5397 262.665 228 233 209
35.0164 -14.3596 261.762 150 152 135
32.7933 -17.7787 258.404 231 241 233
34.3938 -17.7868 261.294 225 239 230
35.3636 -15.8043 262.639 227 234 216
35.3984 -16.3472 262.93 163 171 150
34.4294 -15.4668 259.924 51 54 34
4.75928 -15.5096 221.67 76 99 108
19.7 -16.866 269.4 44 61 23
33.1415 -13.9358 258.883 52 54 39
35.3605 -17.6758 263.456 20 30 24
35.5733 -14.2515 265.563 34 36 21
34.8858 -14.0715 261.374 95 96 84
35.3965 -16.3792 262.93 206 214 193
32.529 -16.9685 258.32 76 80 65
34.7415 -14.0098 261.68 47 48 36
34.8042 -16.0505 261.176 66 69 59
38.2848 -14.8446 266.189 192 208 206
39.566 -16.5855 275.267 48 61 60
34.5153 -15.9714 261.446 96 100 85
37.7929 -19.7361 265.76 41 58 53
35.4629 -16.7225 263.703 60 66 55
29.0913 -16.9973 252.574 108 101 81
35.4331 -15.5459 262.925 206 212 185
35.2368 -14.0262 262.131 65 66 54
37.8001 -19.707 265.686 47 63 61
34.5148 -14.2935 261.412 86 88 73
34.366 -13.9408 273.648 211 216 212
38.6903 -17.254 267.756 213 237 241
32.5366 -15.2458 257.949 69 72 52
17.2759 -18.006 234.836 12 35 44
38.8927 -15.4413 268.02 250 255 255
34.8733 -16.0106 261.546 64 67 57
32.7525 -16.971 258.612 66 70 55
38.4553 -17.1084 253.628 246 253 248
7.83947 -20.4768 194.958 248 255 248
24.0542 -17.0768 228.231 134 123 106
-3.59432 -13.7331 204.731 95 101 104
22.4473 -12.3516 231.12 91 96 90
-7.20039 -14.3298 198.394 244 251 249
24.332 -12.303 233.561 61 61 58
-5.57382 -14.6134 198.698 255 255 255
25.0293 -12.3184 233.251 29 24 12
-5.44623 -14.291 195.819 51 60 73
8.16148 -20.4171 196.224 248 255 248
2.15373 -21.6911 201.085 35 48 63
23.9529 -12.2033 233.444 24 27 19
23.9995 -12.4019 233.426 164 166 166
26.2807 -14.4688 231.719 251 255 253
7.03831 -11.0881 232.35 178 184 173
24.2581 -12.2665 232.635 53 54 46
18.5891 -16.7459 219.88 118 113 99
6.7806 -11.2244 233.416 233 230 217
22.7566 -12.3895 231.854 173 179 180
0.397159 -14.2888 210.481 255 255 255
25.2401 -12.4854 233.385 105 101 82
22.867 -12.1695 231.771 42 45 33
25.1836 -12.3597 233.011 233 229 210
24.0658 -17.0565 228.458 116 105 88
18.8511 -16.5816 220.564 127 123 106
7.90906 -20.4175 195.71 240 253 252
23.7287 -12.2182 232.551 62 64 59
10.5184 -11.3877 238.68 210 212 197
9.858 -17.3834 236.468 68 117 135
24.0084 -12.2498 234.071 36 38 33
26.1212 -13.9274 231.025 134 131 118
-6.2794 -16.1004 201.449 62 98 100
26.0568 -22.0646 230.904 218 217 208
25.085 -12.4543 232.161 42 38 19
1.44072 -13.3356 207.204 215 225 233
-8.99902 -13.9766 194.434 61 70 70
24.2271 -12.1886 233.262 34 35 25
-2.17315 -15.2466 218.156 113 160 167
25.2245 -21.6462 230.507 92 91 80
24.0074 -17.1327 227.803 134 123 106
24.1384 -12.4749 233.884 157 158 161
22.6208 -12.3174 231.05 172 176 178
24.9231 -12.5998 233.191 123 116 114
20.487 -16.8399 223.08 131 122 103
20.1771 -16.8691 222.351 137 128 109
15.5336 -11.7961 244.603 195 196 186
19.3952 -14.6004 221.402 120 118 89
26.0458 -21.9519 231.186 245 244 233
21.5127 -16.9164 224.445 124 114 90
5.51367 -12.0136 227.615 193 212 201
14.6857 -12.2025 243.275 205 208 196
18.0913 -21.0995 219.498 128 123 111
11.3444 -12.0774 239.343 209 212 190
-0.0471885 -21.764 195.613 21 34 53
24.2924 -12.5688 233.262 251 255 255
22.8408 -14.5928 226.34 129 121 99
1.27512 -10.7302 225.993 235 234 223
26.4101 -14.6014 231.9 125 121 104
11.1785 -11.6002 238.211 197 204 188
8.76812 -17.7058 234.993 89 137 158
26.2656 -14.5124 231.522 255 255 245
-3.21903 -14.3147 205.496 246 245 250
9.37915 -17.6454 236.295 61 108 111
19.4243 -15.229 221.193 138 131 113
16.2246 -11.8651 245.613 195 196 186
25.7627 -16.9973 230.587 113 108 94
2.21998 -10.8427 227.228 238 237 226
19.4646 -21.5138 220.577 135 128 110
22.781 -12.1732 231.202 35 38 26
8.54627 -11.3325 235.961 215 214 203
6.69444 -12.3028 201.855 253 255 255
19.3915 -15.1981 221.575 127 120 102
5.76111 -13.1813 230.437 119 149 130
24.0176 -14.6669 227.787 128 120 96
14.4269 -11.8343 244.146 215 214 203
9.51725 -12.4007 233.513 255 244 240
0.567767 -22.7719 196.426 16 33 53
12.6182 -11.5292 240.347 163 171 161
5.97667 -12.6588 195.843 160 100 132
24.376 -14.6178 229.703 147 139 117
22.0385 -21.3259 225.366 129 121 108
24.1274 -12.4341 233.716 171 173 173
11.2741 -12.323 208.399 74 83 85
18.2295 -13.1726 248.629 197 229 237
22.8588 -16.9751 226.681 132 124 102
24.0631 -16.8579 228.213 133 124 107
15.1188 -11.9587 244.052 197 204 188
20.5243 -16.7589 223.414 147 138 119
9.46478 -19.8083 200.784 246 255 255
3.16446 -15.2638 222.243 124 72 93
22.4873 -12.4457 231.118 72 77 73
19.9813 -21.7888 221.002 255 244 229
6.38457 -14.0618 231.381 72 94 94
14.779 -11.8722 245.009 10 11 0
4.91318 -14.657 227.828 35 53 68
9.52087 -13.5583 233.992 117 124 119
1.98104 -21.1465 199.799 25 40 56
18.6454 -12.4469 249.087 193 196 188
18.2148 -20.9067 220.184 137 132 120
21.6104 -16.8385 224.792 134 124 100
-3.75318 -15.4255 216.159 13 60 63
5.45921 -18.3857 188.02 58 59 40
7.20383 -19.4922 234.815 148 188 207
26.408 -14.6492 231.89 139 135 116
7.82764 -14.0209 190.731 58 56 54
-8.61638 -16.1341 197.478 131 148 143
18.1881 -20.9216 220.065 137 132 120
5.39939 -12.2931 198.125 244 255 255
26.9115 -12.6827 231.967 94 92 72
19.5036 -14.3231 221.621 131 129 109
-3.44849 -14.4381 216.982 69 92 99
21.7485 -12.6141 253.699 53 59 48
22.2502 -12.6714 254.402 198 201 193
18.2552 -20.9327 219.819 162 157 145
14.414 -11.9514 244.423 38 39 31
22.9652 -14.5827 226.615 131 123 101
5.46329 -11.1435 232.753 190 195 175
3.42367 -15.3606 221.187 180 229 247
-6.12868 -14.014 198.899 112 117 116
22.6929 -17.07 225.638 132 124 102
23.572 -21.2294 228.178 123 118 104
21.7655 -16.7665 225.116 127 117 93
19.5548 -21.3298 221.181 127 123 106
1.21851 -15.3726 218.083 87 97 105
26.0088 -14.6565 231.879 134 130 113
20.9752 -19.1617 223.51 123 112 93
8.34576 -12.0593 232.118 224 229 235
23.9892 -14.1076 236.576 132 124 100
16.3582 -15.6027 194.613 95 87 63
23.1595 -14.6128 226.927 140 132 108
21.9587 -21.2604 225.426 118 108 96
26.002 -14.7545 231.298 143 139 122
21.1357 -21.1438 224.275 176 165 150
21.9671 -21.3404 225.267 125 117 104
7.10772 -14.8982 232.123 181 232 236
16.8927 -14.0614 244.502 51 81 103
24.2775 -12.8294 257.439 204 203 196
24.341 -12.6529 233.626 255 255 255
22.8734 -16.8135 226.458 128 118 96
10.7669 -12.9139 203.123 43 47 49
21.3219 -16.9802 223.798 105 95 71
3.71396 -15.3787 223.175 126 64 93
23.5145 -12.766 256.282 192 194 189
7.47829 -20.1662 235.895 148 202 244
16.2916 -11.9576 245.835 183 189 180
25.7484 -17.1638 230.441 172 167 153
22.3228 -20.9421 227.282 125 117 104
3.82595 -10.4252 219.778 25 13 29
12.033 -14.6984 236.374 116 134 149
18.9085 -12.2908 249.546 205 202 187
26.0611 -14.7653 231.154 91 87 70
21.6409 -12.501 253.424 225 105 125
9.95422 -13.2437 199.758 250 249 252
6.42046 -14.9916 230.303 46 47 50
25.4279 -17.1621 230.398 120 115 101
-6.47407 -14.0309 197.712 95 102 100
13.2178 -13.8635 209.843 82 80 76
3.86678 -10.8189 229.558 196 195 184
24.1685 -12.3635 233.858 197 197 194
22.2732 -12.6309 254.352 146 175 163
24.2412 -12.2126 233.248 41 41 36
20.5539 -14.4514 222.792 113 103 81
25.6947 -14.7722 230.092 125 121 104
0.722397 -13.4375 216.007 255 255 238
21.067 -21.0794 224.716 132 120 108
25.2004 -21.7196 230.474 106 105 94
23.3388 -12.712 255.96 146 175 163
23.232 -12.8113 255.726 215 221 222
18.9433 -24.4271 197.013 126 115 96
18.0308 -20.9869 219.328 135 130 118
7.61061 -14.5952 231.933 34 30 50
24.9355 -21.5419 229.964 106 106 90
10.6863 -12.4597 209.586 48 57 59
26.0258 -14.7799 230.787 91 87 70
21.6829 -16.8854 224.808 127 117 93
19.0327 -12.3987 249.693 53 59 48
-13.9856 -10.4481 197.39 46 47 24
-26.5736 -13.1708 175.006 96 100 102
-16.6135 -12.5707 186.089 243 244 232
-16.6468 -10.8045 186.1 76 79 67
-11.0747 -20.3063 191.715 178 179 184
-17.2274 -11.2905 185.092 85 88 80
-17.7599 -12.4832 185.099 246 247 228
-20.1872 -10.7514 184.605 248 249 239
-17.68 -10.0579 185.988 40 41 18
-19.5291 -12.5743 181.928 242 243 224
-24.4028 -13.3902 177.554 236 248 254
-11.33 -20.3325 191.176 135 135 143
-17.4347 -10.9515 189.108 235 238 230
-16.4659 -12.3409 195.926 92 118 110
-18.4226 -10.7641 187.046 244 246 243
-25.5257 -12.8962 177.514 73 74 77
-16.4719 -12.6266 184.957 62 74 82
-16.2861 -12.5511 186.708 243 244 232
-25.1164 -13.6421 175.464 20 42 44
-16.6728 -10.8062 186.947 96 93 78
-14.6832 -12.2422 198.378 92 118 110
-23.5288 -13.3397 179.576 71 79 84
-17.6816 -12.729 183.985 251 249 247
-16.6646 -10.215 185.03 240 243 235
-16.6512 -11.5889 184.277 46 54 63
-21.8571 -11.742 186.362 198 233 242
-21.2707 -13.2201 183.138 59 74 81
-10.6539 -19.5636 192.747 155 159 163
-17.4293 -10.9211 185.66 248 245 230
-18.3016 -10.065 186.15 63 66 58
-25.7669 -13.6569 175.794 33 48 55
-16.7076 -10.67 186.775 133 127 122
-16.7324 -12.7007 184.347 43 58 65
-28.5955 -11.9557 176.389 183 220 231
-14.8087 -12.3709 198.342 187 219 218
-15.0597 -14.5728 185.997 50 81 87
