ply
format ascii 1.0
comment Created by Open3D
element vertex 1293
property double x
property double y
property double z
property uchar red
property uchar green
property uchar blue
end_header
-275.684 -83.2414 -51.6608 104 119 137
-274.869 -84.3662 -49.8676 248 255 255
-247.732 -78.3653 -8.15949 24 15 0
-267.144 -71.4097 -33.1159 224 234 212
-247.214 -78.6445 -8.52178 66 66 3
-284.383 -88.4275 -55.8452 227 255 255
-269.613 -71.8324 -35.9733 67 73 64
-248.225 -78.8625 -7.68359 154 204 255
-286.545 -88.243 -56.5772 159 187 192
-280.658 -70.6083 -45.4962 206 209 197
-276.31 -84.9927 -51.694 32 52 64
-247.463 -78.4481 -8.36404 38 19 0
-265.454 -95.1446 -32.7426 40 79 78
-282.077 -90.0069 -51.7225 59 105 117
-274.041 -70.6297 -39.3485 225 233 223
-271.002 -83.0876 -46.3886 60 255 237
-247.429 -79.1352 -8.30418 182 207 37
-265.771 -96.3072 -34.105 11 64 83
-266.337 -97.2307 -34.8833 82 127 144
-278.681 -71.1624 -47.6889 199 202 192
-247.476 -79.2986 -8.29571 177 172 103
-248.483 -78.6785 -7.26943 147 202 227
-265.092 -96.5724 -33.7407 46 101 128
-247.795 -79.2048 -8.12899 193 197 103
-285.154 -94.6782 -52.5508 186 217 223
-261.144 -81.6507 -22.3711 125 144 104
-247.768 -79.1931 -8.09477 190 194 100
-247.774 -78.3653 -7.88301 146 219 254
-287.054 -91.7084 -55.8773 203 237 251
-248.046 -79.1924 -8.10398 174 182 91
-280.603 -88.7466 -50.64 186 233 240
-282.359 -89.1493 -52.646 192 245 253
-276.117 -85.0565 -52.0403 70 87 93
-283.499 -69.5547 -49.2178 46 51 47
-248.157 -78.1111 -7.39191 6 57 90
-278.836 -87.4184 -50.1722 62 105 107
-247.412 -78.4432 -8.33998 38 19 0
-248.257 -79.1062 -7.85944 187 178 133
-265.976 -97.3633 -34.753 161 205 213
-277.346 -71.8015 -42.4136 220 222 217
-247.449 -78.9933 -8.30749 179 198 92
-248.135 -78.7374 -7.63399 110 172 204
-247.638 -78.5252 -8.09108 28 16 0
-247.556 -78.5818 -8.1295 177 186 61
-284.054 -90.8346 -54.1707 25 84 97
-263.697 -95.3715 -32.1192 154 219 250
-286.376 -91.4517 -56.5811 120 179 192
-264.65 -95.6667 -33.028 38 99 127
-278.203 -90.5559 -47.0595 18 72 86
-283.303 -93.2426 -50.8902 48 52 81
-251.658 -72.9464 -19.807 226 240 236
-284.892 -94.6987 -52.5507 187 215 236
-284.549 -88.2999 -55.7143 29 69 72
-263.602 -73.2497 -28.3446 220 223 203
-266.662 -72.899 -31.6863 214 217 195
-247.927 -79.0569 -8.17025 199 196 129
-247.671 -78.566 -8.04477 158 151 122
-282.46 -70.3417 -47.229 206 209 197
-247.985 -79.0741 -8.18681 199 196 129
-284.469 -87.8538 -55.0606 32 71 81
-265.707 -96.8928 -34.3531 62 112 137
-266.044 -97.5568 -35.3143 35 77 86
-247.897 -78.887 -7.76573 65 60 0
-271.776 -95.0823 -39.9153 196 243 255
-282.407 -92.7928 -49.3448 172 202 222
-284.978 -90.9937 -55.3447 23 82 93
-247.42 -78.5761 -8.32152 37 24 0
-283.277 -89.8059 -53.414 18 78 86
-281.452 -90.2032 -50.0437 204 233 249
-265.36 -96.0537 -33.7122 31 84 103
-282.048 -89.618 -52.1475 34 92 98
-271.599 -71.7402 -38.0711 206 208 205
-266.005 -71.7059 -31.4845 204 210 201
-268.797 -71.4596 -33.9464 205 213 203
-248.245 -79.1388 -7.91854 194 198 72
-247.293 -78.4152 -8.37607 193 183 91
-285.702 -71.014 -54.0496 214 217 205
-274.321 -96.2204 -42.7312 196 243 255
-247.749 -79.2496 -8.26771 203 199 69
-247.876 -78.3716 -7.94661 146 219 254
-247.991 -78.9858 -7.93777 194 198 92
-269.927 -71.7356 -36.2858 67 73 64
-282.342 -86.5995 -51.9963 196 234 238
-247.906 -78.3685 -8.2628 42 37 0
-285.979 -94.4167 -54.7749 195 248 255
-266.895 -72.8561 -31.1067 50 53 41
-248.341 -78.9321 -7.50402 129 190 218
-284.345 -88.2394 -55.5661 29 69 72
-284.919 -71.0553 -52.7877 185 187 182
-254.81 -76.6052 -29.9725 240 245 255
-285.541 -69.6134 -51.9982 225 227 224
-278.647 -70.9667 -48.8839 194 195 185
-270.143 -72.3454 -35.1736 211 211 195
-281.857 -71.6178 -50.8657 227 231 216
-277.3 -91.695 -45.6668 83 125 145
-262.968 -82.1213 -23.3025 188 197 178
-263.019 -76.2928 -40.366 135 130 118
-273.146 -71.508 -39.5979 206 208 205
-248.351 -79.1214 -7.69987 138 199 238
-283.742 -93.5353 -52.3078 39 81 101
-264.149 -94.6038 -31.1754 186 231 232
-283.167 -92.9459 -51.553 189 234 253
-276.039 -89.2782 -45.1124 179 240 252
-276.736 -85.114 -52.2186 34 55 62
-312.068 -91.4846 -95.9694 67 113 135
-283.041 -93.0333 -106.363 146 124 116
-326.731 -84.6187 -84.5793 208 240 239
-323.12 -84.7467 -81.3432 59 94 103
-286.983 -104.914 -111.998 255 255 255
-324.162 -84.3499 -83.1708 235 255 255
-283.33 -105.839 -114.038 94 97 87
-322.577 -84.7002 -81.3156 100 108 115
-279.677 -74.8214 -66.0881 190 193 185
-324.683 -86.6922 -83.2578 54 88 102
-270.812 -76.0359 -52.637 255 254 239
-324.963 -84.4115 -83.6608 225 247 247
-322.539 -84.6594 -81.0067 59 94 103
-324.762 -80.7154 -71.2536 42 49 47
-326.66 -87.0924 -84.9474 65 92 106
-320.369 -84.5581 -79.8338 102 107 117
-326.201 -82.3212 -71.0354 19 51 63
-326.282 -80.8418 -72.0032 11 18 13
-303.049 -80.3811 -103.241 233 229 212
-284.923 -97.7779 -112.556 239 238 241
-325.228 -85.0871 -82.8633 78 117 127
-322.789 -84.1607 -82.1717 244 255 255
-275.485 -76.9618 -73.1952 30 33 42
-289.796 -76.9959 -85.3575 62 67 63
-321.469 -78.9935 -85.8714 3 23 35
-271.37 -86.1099 -84.6468 174 192 149
-283.833 -94.0047 -108.997 81 60 47
-273.687 -75.548 -56.5741 7 6 21
-326.187 -86.9725 -84.5113 75 102 112
-323.281 -84.7959 -81.3893 56 95 105
-273.801 -77.9605 -75.7936 243 251 255
-284.723 -97.5541 -111.578 255 255 251
-275.037 -76.6867 -71.5107 46 41 38
-277.153 -76.6994 -74.206 66 38 38
-312.293 -91.1771 -96.8783 183 217 233
-323.16 -85.5875 -82.1659 201 240 248
-275.257 -80.8668 -84.4639 98 128 79
-325.003 -85.247 -82.6506 92 138 148
-274.758 -76.8957 -71.7163 248 248 245
-320.403 -79.0511 -85.4747 0 2 14
-323.244 -83.2258 -65.2696 188 193 201
-285.327 -98.2432 -113.633 237 238 241
-272.86 -81.5004 -86.0985 184 200 167
-319.189 -78.9839 -84.6402 0 12 24
-290.187 -92.7523 -110.968 85 77 55
-277.319 -74.9662 -62.3453 190 193 185
-271.663 -86.7415 -85.6991 142 162 117
-274.767 -77.2693 -71.3937 197 228 255
-272.611 -81.3482 -84.9212 184 200 167
-276.499 -76.7228 -73.1082 240 226 226
-280.411 -76.0443 -67.3229 43 36 16
-274.511 -76.9586 -73.162 0 5 0
-286.184 -103.773 -109.746 255 255 252
-273.11 -77.688 -76.4954 8 14 17
-324.735 -82.1613 -70.4283 43 77 91
-299.933 -76.006 -96.1524 216 216 213
-304.368 -72.4053 -79.4083 126 132 119
-291.423 -85.5748 -111.619 235 211 203
-318.884 -78.8424 -84.4562 14 34 46
-274.865 -79.747 -83.6365 0 7 3
-273.081 -77.8222 -77.1566 221 230 200
-272.982 -77.6839 -76.3032 17 19 16
-321.39 -78.9174 -85.7702 19 38 46
-273.986 -77.4532 -75.9102 38 39 27
-286.245 -93.0353 -105.792 69 54 43
-282.741 -92.8452 -105.605 113 91 83
-284.291 -74.4008 -73.0514 11 17 20
-272.827 -78.0252 -75.738 24 47 3
-273.436 -81.8635 -86.2444 170 189 153
-275.485 -77.5597 -77.026 167 173 176
-275.106 -76.2 -66.4592 236 222 224
-274.968 -76.912 -71.7885 51 54 63
-319.857 -79.0004 -85.1951 2 24 36
-275.734 -80.8808 -85.3071 141 163 126
-276.352 -76.6208 -73.0288 36 27 19
-276.204 -82.8885 -84.9732 174 180 141
-327.622 -81.6004 -71.8153 66 76 70
-266.12 -75.6537 -44.669 0 0 10
-323.492 -81.4985 -69.6975 214 224 216
-273.901 -77.4861 -75.8055 42 44 39
-297.661 -73.6489 -94.3662 14 20 23
-266.047 -75.6646 -44.5475 2 5 16
-323.009 -86.3986 -82.4018 73 98 109
-323.546 -81.3812 -69.6944 237 249 242
-308.916 -90.0783 -92.7778 177 192 208
-288.99 -86.1942 -109.628 193 179 163
-272.152 -86.263 -85.0557 138 156 113
-274.132 -79.5707 -80.7333 3 13 10
-273.271 -77.7599 -77.4255 0 0 0
-275.324 -75.9161 -59.2764 224 220 203
-273.802 -77.6125 -74.72 153 152 155
-275.821 -77.4351 -78.5908 51 51 48
-275.147 -76.7104 -71.9202 28 23 20
-285.331 -93.5697 -107.15 85 65 56
-287.268 -93.0483 -106.31 100 82 63
-275.306 -77.0168 -74.6884 201 210 210
-290.536 -85.1078 -109.306 196 177 165
-275.463 -76.4153 -67.4385 51 44 58
-275.209 -76.9145 -72.8918 248 248 245
-271.398 -86.0748 -85.0987 129 147 104
-274.114 -77.6259 -75.7785 158 158 158
-276.54 -81.2456 -88.3945 122 149 106
-276.52 -81.9934 -84.7956 143 145 103
-276.166 -74.9518 -60.3185 13 19 22
-269.814 -75.3142 -50.5933 65 64 67
-289.888 -80.5136 -109.544 22 24 19
-277.827 -100.446 -117.033 65 63 61
-273.309 -77.7975 -75.6414 170 179 192
-276.016 -76.2139 -68.4741 248 234 236
-274.696 -77.1104 -74.0696 153 163 160
-278.171 -101.031 -118.722 66 64 62
-272.069 -81.1678 -84.7402 26 52 0
-275.885 -76.4805 -70.5844 153 150 137
-276.442 -76.6497 -73.3649 28 20 9
-290.14 -73.1145 -74.9924 83 84 65
-324.231 -83.3382 -65.3319 244 243 248
-303.266 -72.9196 -68.5434 230 246 246
-270.343 -83.537 -87.0109 27 45 0
-289.479 -93.3434 -112.723 80 59 46
-275.273 -77.9773 -64.6256 239 255 232
-278.136 -72.6277 -49.4995 79 74 62
-273.475 -80.0107 -83.4073 0 25 0
-325.094 -83.6697 -65.9599 204 202 210
-273.278 -77.7814 -75.4597 160 169 182
-271.46 -81.0328 -83.95 167 197 148
-276.396 -83.0156 -85.6617 174 180 141
-269.242 -75.8266 -49.7163 179 175 154
-271.854 -86.5643 -85.2032 133 154 104
-274.58 -76.9031 -70.7629 51 54 63
-271.912 -86.843 -85.9597 161 182 130
-324.029 -85.6716 -82.779 201 240 248
-271.483 -75.6164 -53.104 28 31 42
-273.004 -87.4366 -86.1788 185 206 146
-323.221 -83.3183 -65.2069 214 214 224
-328.629 -75.8012 -136.386 103 71 29
-327.883 -76.8903 -135.128 94 70 44
-299.929 -80.1835 -120.642 176 172 155
-301.152 -76.5582 -98.1823 134 128 121
-307.958 -80.1477 -122.268 161 172 143
-305.656 -77.3283 -105.982 188 196 157
-318.393 -82.7939 -115.137 0 0 23
-307.776 -77.5846 -109.389 188 199 157
-325.105 -76.519 -131.501 6 0 0
-319.429 -82.7948 -116.523 218 237 255
-322.302 -80.4246 -146.348 129 184 80
-316.085 -82.5574 -111.747 160 224 246
-294.778 -76.2366 -88.1385 228 226 193
-323.391 -76.1504 -129.354 106 94 64
-316.987 -82.5369 -113.369 0 6 30
-321.381 -75.7404 -127.336 190 209 198
-301.806 -76.6416 -99.2495 124 122 104
-316.455 -82.4603 -112.708 13 48 71
-305.372 -77.0176 -105.18 121 123 106
-309.977 -75.1225 -111.411 27 0 4
-296.762 -75.6848 -92.1016 178 173 159
-331.476 -76.0286 -141.324 108 92 48
-294.16 -75.9516 -86.9992 155 183 158
-308.812 -80.9626 -122.656 143 153 120
-301.766 -79.2324 -119.932 245 246 225
-319.868 -77.708 -124.931 104 96 72
-292.16 -76.0682 -91.124 183 184 189
-307.605 -82.5303 -122.092 123 139 97
-294.251 -75.9852 -87.2916 49 47 18
-311.824 -81.3996 -126.145 148 160 122
-311.866 -82.4732 -124.725 19 34 0
-295.964 -79.7636 -113.379 245 239 216
-316.085 -82.4601 -112.189 65 101 128
-308.815 -83.3019 -122.726 144 163 84
-302.237 -78.6757 -120.675 30 33 2
-295.7 -94.0566 -117.361 86 22 7
-309.582 -84.2073 -125.728 116 128 92
-294.703 -93.6699 -115.975 126 77 66
-302.997 -76.5404 -102.401 33 33 0
-307.636 -76.4011 -111.026 205 202 162
-323.531 -76.4694 -129.156 6 0 0
-312.463 -76.8465 -115.836 72 46 23
-309.623 -85.8472 -122.51 167 182 127
-310.38 -86.2134 -124.128 142 156 106
-301.32 -78.8333 -119.591 47 50 30
-307.672 -80.0562 -121.46 147 158 129
-314.898 -74.9192 -119.116 24 29 35
-309.003 -75.715 -110.78 39 48 48
-299.772 -75.7731 -97.1006 10 10 10
-318.734 -83.1053 -115.422 14 50 77
-332.793 -77.6007 -141.352 91 65 44
-309.755 -82.0278 -122.281 1 17 0
-310.079 -81.1822 -126.091 141 152 110
-324.701 -75.6789 -132.252 218 226 231
-309.88 -84.5119 -124.093 165 181 123
-322.468 -78.953 -142.84 234 218 205
-295.623 -76.1983 -89.3641 94 124 133
-315.864 -82.6439 -111.208 157 216 242
-309.901 -84.5455 -124.464 151 165 115
-321.77 -76.8785 -139.247 32 23 15
-324.297 -74.1157 -127.81 120 127 125
-325.875 -79.3202 -151.061 53 52 41
-307.804 -82.1716 -123.705 153 163 137
-310.898 -81.3593 -123.911 134 147 106
-301.192 -102.378 -129.297 59 53 44
-326.341 -75.3568 -132.683 222 214 192
-299.916 -80.0026 -119.703 200 194 171
-311.02 -81.0151 -129.444 130 141 110
-317.246 -75.3191 -124.586 153 157 161
-329.185 -75.8399 -136.339 12 7 0
-328.608 -76.3719 -138.166 63 43 25
-309.842 -85.1179 -121.293 170 181 150
-308.3 -82.0778 -122.183 161 173 137
-318.722 -82.907 -115.634 51 79 102
-308.023 -81.9 -121.231 158 174 114
-311.341 -76.6871 -117.073 26 25 0
-308.088 -76.2831 -113.598 39 35 27
-302.151 -79.3614 -121.488 244 245 224
-308.192 -80.1111 -122.606 155 165 139
-323.474 -81.2197 -143.55 235 232 217
-309.034 -80.0404 -125.228 178 188 164
-306.786 -81.9774 -120.92 167 181 149
-298.106 -79.76 -116.529 221 221 221
-297.877 -100.016 -123.489 53 15 0
-317.318 -82.7682 -113.662 21 41 55
-327.188 -76.778 -134.427 248 227 200
-313.07 -76.3828 -116.992 65 50 28
-309.37 -80.0192 -123.066 153 166 125
-310.664 -84.5199 -125.339 6 22 0
-298.319 -79.6319 -116.749 196 194 192
-326.833 -75.8424 -132.849 29 25 8
-323.077 -76.4832 -128.452 75 54 27
-296.022 -79.84 -113.907 236 230 207
-318.933 -82.6233 -115.823 156 175 196
-310.752 -84.0627 -126.866 152 169 102
-318.467 -83.4138 -114.313 151 214 241
-329.96 -76.1693 -138.421 81 75 39
-300.534 -80.2227 -122.115 202 200 182
-307.594 -83.0964 -121.539 148 159 128
-308.278 -80.7964 -121.382 171 181 148
-300.071 -80.2616 -121.229 179 175 156
-308.898 -82.81 -121.969 145 163 91
-318.809 -77.0242 -132.948 40 40 24
-316.274 -78.2553 -130.765 255 255 251
-298.748 -79.6909 -119.389 131 136 132
-314.651 -82.1665 -109.986 160 224 246
-327.912 -76.9532 -149.406 21 12 8
-297.906 -75.7268 -94.1938 186 178 165
-301.789 -78.5499 -120.347 239 244 210
-318.302 -76.4984 -124.723 58 43 23
-307.65 -82.9322 -122.805 126 142 98
-316.854 -76.6559 -130.101 32 23 15
-301.515 -88.9494 -121.336 202 164 147
-295.446 -81.0848 -113.918 38 31 11
-306.818 -79.6348 -118.506 135 145 123
-334.492 -81.2761 -139.991 0 10 21
-307.053 -81.6012 -119.326 106 118 82
-292.966 -75.7771 -85.2347 35 21 0
-307.488 -80.5908 -119.69 143 153 120
-320.71 -82.5908 -118.362 103 138 159
-301.501 -75.9245 -100.415 162 158 139
-302.221 -89.5081 -122.85 204 195 164
-309.489 -81.1302 -124.11 171 181 148
-296.965 -76.356 -91.5948 208 236 241
-321.355 -76.1769 -128.951 86 96 88
-298.444 -78.918 -117.735 0 17 0
-295.394 -93.628 -116.822 48 12 2
-295.907 -80.7167 -112.799 251 251 221
-327.971 -75.4418 -135.012 250 244 219
-301.397 -103.14 -130.44 43 44 32
-319.128 -77.0476 -133.576 40 40 24
-309.97 -76.4859 -116.856 117 116 107
-316.378 -79.6049 -136.591 224 240 209
-317.266 -82.5219 -113.85 51 79 102
-301.046 -76.9447 -98.2249 79 109 118
-301.99 -79.1987 -121.203 247 248 229
-294.914 -94.3893 -117.438 38 0 0
-297.672 -99.9315 -123.57 57 38 26
-313.528 -76.3154 -117.215 58 43 23
-333.907 -75.9015 -142.952 33 28 14
-296.186 -80.712 -113.373 255 255 235
-302.346 -79.2179 -120.845 237 241 214
-301.224 -78.6201 -118.73 238 240 214
-300.295 -78.5619 -115.969 36 39 19
-306.422 -76.5443 -109.165 70 58 32
-309.316 -80.239 -124.324 166 176 152
-318.507 -76.0116 -123.988 26 38 29
-307.977 -83.1003 -123.464 124 140 96
-310.706 -80.1617 -123.616 19 30 0
-308.549 -82.5063 -122.052 166 186 118
-301.903 -78.651 -118.454 0 3 0
-311.113 -85.045 -126.776 148 163 108
-301.159 -78.8244 -119.189 36 38 23
-305.684 -75.6502 -105.778 31 38 31
-302.235 -89.4662 -123.45 69 55 37
-305.548 -76.5534 -107.556 73 58 36
-323.584 -78.1849 -127.654 200 229 227
-301.351 -76.401 -100.123 53 41 4
-315.631 -78.2167 -130.611 80 79 68
-327.948 -77.5792 -133.969 221 203 182
-295.374 -93.5549 -116.741 50 11 0
-306.024 -79.5852 -117.58 155 165 139
-301.753 -89.324 -122.306 197 153 141
-333.036 -75.7318 -144.779 218 226 231
-295.938 -80.6405 -112.812 246 245 218
-303.002 -79.6446 -126.979 9 12 4
-301.833 -78.3527 -119.069 207 207 191
-296.219 -79.8857 -114.319 0 0 0
-295.299 -93.3158 -116.183 48 12 2
-309.97 -76.4906 -115.131 219 216 176
-323.992 -74.1907 -127.404 114 121 119
-295.432 -81.1056 -113.932 11 4 0
-296.154 -79.8614 -114.023 16 10 0
-301.531 -78.9031 -120.079 36 39 19
-300.723 -93.4782 -123.84 84 23 7
-307.333 -82.9445 -121.392 127 137 111
-309.491 -81.4298 -123.757 150 161 119
-307.431 -82.1488 -121.961 111 126 91
-301.563 -102.925 -129.923 169 181 185
-314.413 -76.1305 -118.726 29 39 31
-309.543 -87.3459 -124.769 180 195 142
-309.341 -80.1676 -126.033 132 142 118
-316.702 -76.3804 -128.698 54 45 37
-295.835 -80.6148 -112.47 255 255 229
-331.013 -80.8053 -135.423 29 40 51
-295.949 -80.6818 -113.198 253 253 223
-302.213 -89.7506 -123.959 201 169 153
-298.288 -78.8841 -117.144 0 7 0
-307.102 -75.6336 -108.35 189 194 188
-314.162 -73.9085 -112.231 218 226 231
-334.253 -77.7417 -165.955 41 44 24
-328.419 -77.0263 -139.599 91 68 53
-327.959 -85.5576 -149.873 102 84 83
-331.501 -76.4181 -143.046 46 26 8
-333.935 -77.7398 -165.02 48 50 35
-321.936 -76.0399 -130.801 19 20 12
-320.984 -76.4173 -128.786 248 231 203
-333.775 -77.7152 -164.648 34 37 17
-333.959 -77.0759 -144.821 222 207 196
-330.288 -76.2141 -141.901 218 223 229
-324.781 -77.8136 -135.214 225 215 191
-329.561 -86.0196 -152.645 99 82 83
-321.832 -76.0333 -130.624 178 180 175
-333.929 -77.2285 -144.656 196 192 173
-326.082 -79.2658 -140.055 240 226 228
-332.116 -82.443 -157.892 131 110 106
-321.073 -76.2959 -128.995 45 23 15
-330.796 -77.048 -142.23 117 95 77
-333.337 -83.05 -161.013 97 72 69
-326.304 -81.5735 -149.242 255 255 255
-326.241 -81.5843 -149.131 255 251 252
-330.303 -76.4591 -141.791 89 69 60
-321.512 -76.837 -130.523 66 49 41
-333.154 -77.7164 -162.917 46 48 33
-334.615 -77.8955 -167.242 189 191 176
-327.94 -76.9944 -138.87 66 45 30
-328.32 -76.5222 -139.687 120 97 84
-328.732 -76.4011 -140.084 40 39 30
-333.159 -85.4452 -157.34 255 246 248
-324.881 -77.8414 -135.235 104 105 82
-333.547 -77.6337 -164.046 24 27 7
-333.684 -77.6292 -163.53 204 198 191
-323.058 -76.4783 -132.502 176 176 144
-333.8 -77.0755 -144.562 239 224 213
-333.28 -82.8251 -160.419 119 98 96
-330.269 -76.4514 -141.755 49 37 27
-324.951 -77.9282 -135.607 204 194 170
-327.301 -79.5587 -144.572 214 197 189
-330.338 -76.3789 -141.857 87 81 72
-323.578 -77.2535 -133.317 123 109 80
-322.309 -76.6676 -131.167 249 232 195
-326.302 -81.669 -149.411 245 228 229
-321.371 -76.4647 -129.507 22 13 0
-330.309 -76.3176 -141.87 35 43 33
-333.849 -76.6081 -144.896 110 82 73
-321.046 -76.431 -128.907 255 255 231
-329.485 -76.3167 -140.979 68 73 69
-338.542 -80.8517 -147.12 20 53 74
-321.299 -76.445 -129.37 34 25 6
-325.868 -78.255 -136.674 90 127 134
-331.807 -76.1763 -143.343 109 120 119
-322.15 -76.6338 -130.868 250 235 197
-327.92 -85.5771 -149.797 111 99 99
-332.451 -82.4184 -158.275 119 98 96
-327.42 -76.2196 -138.515 47 53 54
-325.764 -76.8202 -141.426 248 255 255
-321.616 -76.591 -130.008 252 235 207
-330.018 -82.1317 -148.549 255 253 255
-329.055 -76.1993 -140.567 207 219 215
-333.721 -78.1004 -164.38 70 69 60
-325.159 -78.5931 -138.121 245 238 241
-326.781 -83.8753 -148.824 245 231 236
-332.536 -84.4029 -155.216 119 107 109
-330.129 -81.8921 -149.559 145 136 132
-326.673 -81.8615 -150.686 235 218 221
-321.389 -76.5376 -129.57 255 249 213
-327.473 -76.2069 -138.607 23 20 24
-332.394 -77.7314 -160.728 58 49 43
-331.386 -82.9541 -153.179 148 132 126
-331.445 -83.1316 -152.02 96 84 86
-327.319 -79.8187 -142.734 254 249 248
-322.33 -77.099 -131.489 106 104 73
-322.732 -76.5195 -131.923 221 218 192
-334.908 -84.826 -167.22 115 94 94
-334.737 -77.9676 -167.611 206 208 193
-338.842 -84.4736 -176.165 114 90 82
-321.652 -76.5972 -130.071 248 231 203
-326.155 -81.8307 -148.817 209 195 195
-329.472 -76.36 -140.943 88 90 85
-321.395 -76.5198 -129.574 243 226 200
-329.599 -76.3195 -141.105 62 67 63
-323.402 -76.4657 -133.122 227 227 197
-325.476 -78.1036 -136.502 255 248 224
-328.289 -76.7823 -139.504 84 59 42
-326.738 -84.1087 -148.618 170 157 165
-332.538 -76.1368 -144.195 210 218 195
-326.307 -79.3959 -152.127 197 180 170
-323.195 -77.7045 -134.059 136 124 124
-331.473 -76.4202 -143.008 46 26 8
-323.145 -76.48 -132.658 203 201 170
-326.597 -83.7115 -148.302 245 231 236
-331.607 -86.0428 -156.124 92 70 73
-332.993 -85.784 -157.677 114 103 100
-326.566 -79.0192 -151.588 57 28 22
-321.419 -76.4723 -129.595 34 25 6
-326.452 -81.9352 -149.403 255 247 248
-331.462 -78.285 -158.057 255 248 244
-332.682 -83.8688 -155.941 117 95 87
-325.219 -78.8208 -138.881 132 119 114
-331.539 -77.0873 -142.816 94 69 50
-329.719 -85.7958 -152.564 108 90 87
-328.095 -77.1183 -148.273 146 139 137
-331.91 -77.1163 -156.837 53 60 55
-323.338 -76.454 -132.993 227 227 197
-321.99 -76.0379 -130.905 19 20 12
-326.792 -82.2895 -150.833 209 195 195
-330.393 -76.3488 -141.937 54 55 43
-327.733 -85.2816 -149.27 114 93 91
-334.325 -88.2296 -160.022 113 113 139
-329.016 -76.4996 -140.474 45 30 19
-327.482 -83.6078 -150.388 137 116 112
-333.755 -76.3709 -144.784 252 235 207
-329.055 -81.3525 -146.315 62 45 48
-322.589 -76.9258 -131.738 76 59 35
-333.568 -76.3768 -144.534 252 235 207
-335.476 -78.3032 -169.241 93 87 80
-329.222 -76.1679 -140.772 191 202 201
-326.742 -83.7879 -148.706 230 216 221
-321.987 -76.0328 -130.886 14 16 13
-329.201 -81.9674 -155.355 98 70 59
-332.288 -84.0017 -154.168 253 241 243
-327.268 -84.6689 -149.989 219 208 217
-337.87 -80.6754 -146.324 0 31 52
-331.012 -82.9108 -151.086 58 46 48
-324.066 -76.5256 -134.145 214 219 185
-332.153 -76.0979 -143.569 240 226 197
-328.161 -85.7956 -150.459 107 96 93
-332.437 -84.3111 -155.014 81 69 71
-329.299 -76.5078 -140.872 69 54 43
-322.091 -75.9989 -131.117 22 21 26
-331.657 -82.4798 -154.331 163 138 137
-327.884 -86.315 -150.443 209 199 198
-322.116 -76.2949 -130.955 189 186 146
-329.272 -82.6621 -154.085 103 82 80
-341.408 -82.7655 -190.465 73 35 37
-328.249 -76.7722 -139.442 84 59 42
-331.332 -82.2887 -153.6 115 90 89
-328.363 -85.6435 -150.543 97 79 78
-323.817 -77.6557 -136.389 88 67 54
-327.524 -79.9526 -144.082 100 84 80
-332.54 -85.392 -156.54 91 78 75
-323.811 -76.4908 -133.737 229 235 194
-321.306 -76.4509 -129.388 29 20 0
-332.601 -76.6145 -143.814 82 61 38
-325.537 -77.5206 -135.933 65 98 101
-327.418 -82.5532 -151.269 99 79 72
-325.396 -78.704 -138.904 101 89 89
-327.737 -76.2293 -139.016 47 53 54
-329.133 -76.1695 -140.673 198 209 208
-332.451 -84.0855 -154.576 252 240 242
-321.109 -76.2957 -129.066 53 30 27
-328.986 -83.9221 -152.806 87 66 66
-323.824 -77.2817 -133.692 86 72 43
-333.659 -83.489 -161.609 98 70 68
-326.931 -80.2734 -141.286 219 239 253
-329.111 -76.37 -140.698 20 27 22
-333.015 -76.641 -144.434 50 29 6
-330.292 -76.2847 -141.866 30 40 32
-326.089 -81.5484 -148.761 224 207 208
-327.556 -82.2938 -150.917 103 82 80
-332.687 -84.5055 -155.541 119 107 109
-326.638 -79.0412 -151.846 57 28 22
-330.698 -76.3 -142.458 75 89 80
-330.595 -82.6087 -157.592 255 249 243
-328.757 -76.4938 -140.066 103 82 67
-328.36 -80.7827 -145.528 121 109 109
-327.021 -84.0837 -149.622 230 216 221
-332.31 -84.3886 -156.473 185 173 173
-325.338 -77.48 -135.639 61 94 97
-328.438 -76.9599 -147.828 180 202 202
-327.653 -76.2282 -138.917 153 159 160
-332.482 -84.4047 -156.834 97 85 85
-323.617 -77.8928 -134.803 255 255 255
-332.879 -85.6506 -157.354 104 91 88
-328.865 -81.2169 -145.91 81 67 67
-331.659 -83.0973 -152.09 253 240 248
-332.141 -84.3583 -156.132 160 148 148
-331.093 -80.3716 -154.162 128 105 90
-330.531 -82.3647 -151.017 90 74 68
-325.397 -78.6188 -139.916 81 64 56
-324.659 -76.1794 -134.952 255 253 248
-321.69 -76.5302 -130.081 36 23 2
-329.882 -85.9911 -153.135 100 79 77
-330.801 -82.776 -150.628 58 46 48
-325.773 -76.5257 -140.714 52 64 46
-333.971 -76.3878 -145.086 234 217 189
-363.062 -79.9436 -200.856 78 69 63
-362.446 -79.7462 -199.186 28 22 15
-363.034 -81.5478 -199.584 255 252 234
-363.138 -79.393 -200.363 37 40 20
-363.099 -83.0161 -199.795 11 8 0
-392.7 -81.9019 -224.369 84 62 42
-358.909 -78.1022 -196.501 40 39 42
-362.124 -80.5493 -200.066 234 230 209
-362.381 -79.8352 -199.172 214 203 196
-362.296 -80.7497 -200.567 240 236 215
-362.448 -81.3353 -200.18 223 216 196
-362.335 -79.6128 -198.829 29 25 17
-362.852 -81.6952 -200.899 37 18 4
-362.473 -79.863 -199.38 214 203 196
-367.642 -77.2774 -193.641 30 26 9
-362.414 -81.4537 -199.995 38 22 7
-371.821 -78.5203 -199.947 246 224 204
-361.688 -80.891 -198.79 248 246 224
-363.387 -79.8834 -200.883 33 29 19
-362.307 -81.0195 -200.418 226 224 202
-362.233 -81.1296 -199.962 174 172 150
-362.623 -81.8816 -199.508 23 18 4
-372.003 -87.041 -207.746 8 36 57
-374.942 -79.0196 -204.054 85 60 41
-382.712 -78.443 -210.227 67 51 36
-363.02 -82.9632 -199.638 11 8 0
-386.973 -76.6693 -216 121 127 118
-363.234 -80.7149 -199.969 217 210 190
-370.231 -77.7088 -197.333 48 34 34
-375.111 -80.3646 -219.985 102 108 109
-372.368 -79.7077 -215.413 242 245 233
-375.623 -76.5822 -202.135 84 90 81
-376.334 -77.2025 -203.686 238 239 231
-371.228 -79.8943 -212.688 72 77 71
-377.321 -86.2643 -195.771 221 238 244
-384.391 -78.8778 -212.082 105 80 61
-362.713 -79.7305 -199.566 39 35 27
-361.898 -80.9105 -199.35 233 231 209
-393.71 -83.56 -232.109 219 195 171
-364.712 -77.1659 -189.91 30 26 9
-362.281 -80.6087 -200.463 228 224 203
-362.174 -80.6379 -200.313 229 225 204
-371.438 -86.8459 -206.937 0 24 45
-391.662 -80.1056 -223.821 86 62 40
-377.702 -86.4447 -196.114 205 226 233
-363.067 -81.3878 -199.96 161 157 138
-352.437 -76.6407 -175.307 158 169 156
-361.772 -80.9119 -198.927 196 194 172
-361.93 -81.1664 -199.035 223 216 196
-370.499 -79.5507 -211.949 255 255 252
-398.197 -73.939 -224.441 189 191 174
-373.159 -80.195 -216.438 32 37 31
-354.385 -76.7066 -177.015 196 225 216
-370.507 -76.8816 -197.1 34 48 41
-362.485 -79.859 -199.566 64 55 49
-372.401 -75.9303 -197.815 37 35 45
-372.494 -75.886 -197.954 37 35 45
-360.211 -81.3936 -196.498 225 224 197
-351.714 -76.6596 -173.457 74 81 79
-385.604 -77.0942 -213.413 219 222 214
-384.251 -74.5697 -208.727 194 195 187
-363.265 -81.6013 -200.092 255 254 237
-370.668 -79.4861 -212.286 227 229 214
-368.667 -77.3284 -194.966 30 26 9
-354.582 -77.0954 -177.181 107 82 63
-353.342 -76.8084 -175.592 216 194 176
-359.12 -81.6971 -194.856 232 242 205
-363.541 -81.9135 -200.389 255 255 247
-377.831 -84.0568 -197.919 0 35 62
-372.098 -75.6881 -197.166 0 0 0
-364.364 -80.7017 -202.163 52 45 25
-376.743 -78.3451 -201.729 47 28 12
-357.962 -80.8247 -194.188 192 202 169
-365.766 -77.2179 -191.405 66 65 54
-373.165 -78.8648 -201.749 71 46 27
-360.423 -81.5054 -196.475 30 29 4
-363.32 -81.8526 -199.941 255 255 255
-384.306 -78.8333 -211.974 83 58 39
-379.498 -84.5568 -199.563 20 60 88
-376.5 -86.0517 -194.908 179 200 207
-362.333 -81.4028 -199.826 38 22 7
-372.244 -88.0798 -211.047 0 21 28
-361.792 -80.5604 -199.524 241 237 216
-364.233 -83.3063 -200.325 89 48 30
-378.764 -86.4934 -196.939 15 23 30
-362.163 -80.263 -198.53 187 180 164
-354.261 -76.8208 -176.819 44 34 24
-364.422 -82.8991 -200.76 38 35 11
-362.193 -83.433 -198.779 35 33 0
-387.408 -79.1022 -215.714 105 80 61
-364.224 -76.8425 -193.553 19 24 23
-392.326 -82.7027 -224.627 231 212 196
-381.237 -78.6895 -217.779 188 195 190
-362.719 -80.7187 -199.168 206 199 179
-365.388 -82.9031 -202.503 226 231 207
-374.275 -75.4497 -199.739 184 192 182
-365.683 -83.7865 -202.363 73 59 43
-390.076 -80.6652 -218.193 58 33 14
-367.87 -76.028 -192.481 19 31 55
-355.911 -80.0066 -192.389 175 151 157
-379.675 -78.3906 -205.558 195 218 201
-377.259 -78.1003 -202.712 2 13 0
-377.307 -86.3245 -195.756 205 226 233
-355.913 -79.6219 -191.792 17 27 21
-366.788 -87.6338 -202.364 215 215 212
-393.758 -80.2164 -226.181 86 62 40
-360.957 -81.2501 -197.9 243 232 213
-362.24 -81.0511 -200.027 248 246 224
-371.189 -86.1444 -186.941 2 44 78
-368.163 -76.8024 -194.093 49 63 56
-362.402 -83.4604 -199.862 50 55 31
-376.251 -85.6742 -194.61 15 15 23
-362.432 -88.1132 -195.914 28 31 19
-355.362 -78.1038 -192.061 0 1 0
-363.676 -77.1351 -188.691 66 65 54
-374.285 -75.487 -199.603 171 176 170
-363.697 -80.9417 -201.253 197 193 172
-352.233 -76.687 -174.158 66 68 65
-383.178 -79.0064 -209.573 23 5 0
-364.722 -85.7851 -199.937 254 224 209
-364.835 -82.9969 -201.592 38 40 14
-362.42 -87.4222 -195.507 79 78 81
-358.138 -80.4195 -195.696 210 213 182
-372.615 -75.7848 -197.884 238 234 226
-375.873 -77.1143 -211.825 29 34 33
-363.88 -83.102 -199.629 29 0 0
-362.253 -87.6344 -195.569 236 246 243
-362.495 -87.7946 -195.987 236 246 243
-360.082 -80.9226 -196.015 255 255 234
-363.939 -88.7716 -198.693 251 255 255
-359.986 -81.6183 -196.361 36 41 9
-361.672 -83.0305 -198.055 49 47 18
-365.889 -85.2702 -201.776 39 36 21
-364.101 -89.1339 -198.985 231 241 238
-365.541 -77.935 -204.351 14 26 22
-362.138 -80.4972 -197.971 207 203 182
-378.422 -86.9661 -197.098 43 71 105
-375.781 -77.2085 -202.078 75 66 49
-371.604 -78.5338 -199.631 239 217 197
-380.648 -80.3388 -229.431 224 231 226
-383.708 -89.3157 -201.547 62 80 118
-372.867 -88.3545 -212.093 1 22 29
-364.368 -80.6168 -201.633 82 76 51
-368.024 -76.1467 -192.78 72 96 125
-357.434 -76.4527 -181.045 134 122 96
-370.957 -75.5848 -195.825 194 194 189
-398.676 -79.3153 -239.245 66 73 68
-405.163 -76.9621 -238.695 174 180 169
-399.861 -77.8615 -239.07 54 61 59
-400.279 -77.9052 -239.783 54 61 59
-400.576 -79.2742 -239.638 21 20 13
-402.187 -78.7178 -238.661 71 68 53
-415.85 -84.411 -274.111 73 68 56
-397.66 -79.3172 -239.642 36 48 41
-397.649 -79.5255 -239.511 47 57 54
-398.932 -79.3238 -239.687 66 73 68
-414.921 -74.3964 -240.668 180 192 183
-399.97 -77.9865 -239.045 36 42 43
-401.089 -77.8235 -240.443 41 50 50
-401.1 -79.0943 -240.624 50 60 54
-397.549 -80.0082 -240.096 40 41 33
-401.071 -79.173 -239.54 62 62 46
-399.012 -79.0095 -240.079 38 48 42
-399.528 -78.1627 -240.54 69 79 73
-405.219 -74.8161 -231.383 204 214 208
-395.414 -80.1678 -239.119 67 48 32
-397.899 -79.599 -240.042 43 55 51
-398.915 -78.1087 -239.435 60 70 64
-402.612 -78.6536 -238.687 41 46 22
-404.075 -84.5368 -240.296 231 212 200
-414.582 -74.0216 -239.791 78 85 78
-425.503 -73.4738 -249.805 216 228 221
-403.867 -77.3892 -235.824 92 98 87
-390.497 -77.7902 -224.609 95 86 71
-405.309 -76.6495 -238.002 74 79 73
-400.106 -77.9296 -239.475 50 57 55
-386.257 -75.7298 -213.437 99 93 86
-398.552 -79.4877 -238.814 40 39 28
-404.559 -76.6272 -237.086 70 75 69
-397.933 -79.8355 -239.527 48 53 52
-401.314 -81.2106 -239.297 204 222 209
-409.286 -75.9626 -236.432 54 71 24
-400.56 -77.9198 -240.293 56 63 61
-405.055 -80.0313 -240.303 76 70 61
-406.734 -77.4589 -239.232 255 255 255
-397.815 -79.3372 -239.911 36 48 41
-400.965 -77.8522 -240.19 41 50 50
-422.471 -73.7793 -247.948 25 35 29
-390.259 -77.9791 -225.148 78 74 66
-398.8 -78.2691 -240.066 45 55 49
-402.629 -78.7987 -239.392 34 31 16
-398.709 -79.012 -239.459 83 95 88
-397.445 -79.9958 -239.909 40 41 33
-397.297 -75.9819 -224.419 80 98 44
-399.767 -79.0412 -238.192 75 80 74
-404.934 -77.2647 -237.087 64 70 61
-400.992 -78.8559 -239.714 24 34 28
-404.259 -76.0523 -234.205 230 235 229
-395.539 -80.1197 -239.626 44 47 27
-397.914 -79.3446 -240.203 60 72 65
-397.016 -79.7327 -239.26 74 81 79
-400.551 -78.019 -240.097 46 52 53
-403.382 -80.7078 -239.345 202 203 184
-405.034 -81.4469 -241.671 95 78 52
-398.649 -78.3325 -239.571 61 71 65
-402.348 -77.4477 -239.605 25 35 27
-398.72 -79.5649 -239.174 40 32 19
-403.754 -79.6782 -238.529 255 241 223
-401.228 -79.1857 -239.538 72 72 58
-406.794 -77.4672 -239.349 255 255 255
-396.519 -75.7228 -223.628 196 209 197
-404.749 -79.6661 -238.73 104 93 76
-433.393 -79.2529 -257.192 23 42 50
-401.151 -78.8216 -240.842 45 55 49
-399.855 -81.6246 -239.441 241 248 241
-432.18 -79.2075 -256.098 30 49 57
-400.855 -81.0948 -238.609 204 222 209
-400.062 -78.9635 -238.052 41 46 40
-400.701 -84.1307 -239.31 136 122 108
-407.086 -74.8103 -234.502 137 128 122
-385.892 -76.0199 -213.492 251 255 250
-405.987 -76.6584 -238.838 70 75 69
-403.211 -76.0158 -232.286 78 84 75
-405.168 -78.0868 -238.496 112 98 82
-399.396 -79.2526 -240.234 116 126 120
-395.403 -80.274 -239.137 46 21 2
-401.147 -77.9656 -240.568 50 59 59
-398.171 -79.9438 -240.056 89 86 71
-399.938 -78.7049 -238.418 245 255 252
-398.613 -78.8635 -239.239 66 76 70
-408.024 -79.3767 -240.302 83 70 47
-406.61 -76.3771 -237.985 84 89 83
-405.368 -79.7074 -239.511 105 84 71
-407.76 -77.8765 -239.968 71 61 51
-397.73 -80.1332 -240.708 211 213 198
-409.176 -77.6037 -240.096 90 75 55
-401.769 -81.3452 -239.912 196 211 199
-401.133 -81.4529 -239.349 94 80 66
-405.006 -76.8517 -238.797 42 48 39
-395.52 -80.3018 -239.342 62 37 18
-402.851 -80.6216 -238.449 213 205 192
-403.412 -75.9094 -232.488 251 255 248
-425.805 -83.1758 -250.722 82 110 117
-404.525 -76.462 -236.901 252 255 251
-397.921 -82.1727 -239.438 105 94 77
-397.283 -79.6485 -239.809 71 82 81
-407.822 -77.5198 -238.566 90 75 55
-400.867 -78.8721 -239.548 64 74 68
-407.63 -79.3262 -239.824 83 70 47
-405.81 -77.7445 -237.618 71 61 51
-401.04 -79.3626 -240.392 21 20 13
-401.337 -77.3899 -238.054 68 78 70
-398.699 -79.5399 -239.037 43 34 19
-404.31 -76.8406 -237.897 42 48 39
-404.17 -81.1411 -239.896 118 97 74
-398.333 -79.976 -240.439 97 94 79
-401.652 -81.6871 -240.014 55 44 29
-428.221 -78.0328 -252.909 18 33 36
-396.789 -75.8708 -224.756 89 95 86
-399.115 -78.0814 -240.007 206 216 210
-406.684 -79.5328 -239.87 73 64 49
-430.142 -73.1472 -254.435 40 47 40
-398.527 -78.0922 -239.583 255 255 255
-400.405 -75.8046 -228.454 96 102 93
-397.903 -82.3158 -239.316 95 76 53
-392.721 -77.4951 -222.612 100 89 72
-399.215 -78.162 -240.075 57 67 61
-433.994 -78.1722 -258.462 28 44 44
-403.827 -76.5724 -236.828 107 112 106
-411.283 -74.4378 -237.337 62 69 64
-405.075 -76.6507 -238.488 89 94 88
-401.973 -81.5708 -239.694 105 84 71
-400.775 -78.0369 -240.57 42 48 49
-408.812 -76.4861 -240.279 121 126 120
-406.489 -77.3979 -239.17 68 74 65
-404.184 -75.6515 -231.304 214 227 211
-407.146 -77.2835 -238.253 96 101 95
-403.689 -78.1296 -237.884 37 36 25
-411.335 -79.1988 -242.44 103 84 61
-403.499 -78.7761 -239.835 79 82 58
-401.915 -78.7124 -238.306 34 31 16
-397.907 -82.2341 -239.367 92 76 59
-434.299 -72.9374 -257.95 214 226 219
-404.263 -78.19 -238.022 101 76 59
-401.047 -81.4883 -239.124 55 44 29
-400.328 -79.2022 -239.149 20 25 19
-406.32 -77.0941 -237.228 240 246 237
-403.773 -77.0091 -238.55 78 85 78
-401.85 -76.0203 -231.496 255 255 255
-401.951 -78.5144 -238.435 40 48 36
-403.294 -77.914 -237.491 72 75 65
-400.045 -81.6874 -239.763 217 224 217
-405.948 -78.0453 -238.919 102 86 69
-405.525 -76.4649 -237.786 63 68 62
-404.623 -78.9224 -241.534 76 79 55
-399.12 -79.4162 -238.776 58 53 41
-402.829 -76.6055 -230.722 96 81 72
-399.216 -79.664 -240.036 40 32 19
-400.605 -83.9348 -239.479 203 211 197
-402.869 -77.6187 -240.31 36 47 36
-399.795 -78.4411 -238.756 66 73 68
-401.845 -81.3521 -239.99 183 198 186
-404.058 -76.4684 -236.357 255 255 255
-400.89 -77.7373 -240.309 241 250 250
-395.893 -79.5269 -239.645 220 228 216
-400.868 -79.0808 -240.219 50 60 54
-402.689 -76.894 -235.559 185 192 176
-399.633 -81.5333 -239.085 224 236 227
-426.625 -79.0321 -250.984 29 49 54
-403.171 -84.1341 -238.958 221 202 190
-400.452 -81.8282 -240.569 236 243 236
-404.757 -78.273 -238.772 114 89 72
-400.664 -83.9839 -239.676 202 214 196
-406.875 -76.6056 -239.554 147 152 146
-396.228 -82.6962 -239.355 52 44 31
-398.908 -79.3806 -238.581 20 20 15
-402.961 -76.9968 -232.288 101 86 66
-399.517 -76.4032 -230.5 104 109 103
-405.451 -76.9811 -236.326 70 75 69
-403.883 -78.8548 -240.358 80 67 44
-408.674 -75.5836 -235.554 208 221 205
-398.996 -75.2929 -228.117 98 98 84
-400.511 -78.5529 -239.08 47 57 51
-408.443 -77.6238 -241.396 185 191 180
-399.587 -81.8838 -239.409 75 71 50
-398.399 -82.0555 -239.667 199 209 203
-395.777 -80.4012 -239.954 79 54 35
-399.448 -77.7501 -237.796 53 62 62
-402.938 -76.5798 -235.02 61 66 60
-401.111 -81.5207 -239.194 87 68 52
-400.699 -79.1189 -239.04 18 23 17
-397.774 -79.8357 -239.312 89 86 71
-404.992 -81.4119 -241.473 141 129 101
-408.359 -81.8082 -240.796 53 75 87
-389.626 -76.1853 -217.28 54 44 34
-399.279 -79.1188 -239.794 215 227 220
-404.781 -78.5358 -240.131 71 67 59
-401.345 -78.6928 -240.517 59 69 63
-407.856 -80.0442 -239.756 100 87 64
-406.816 -76.816 -240.712 161 166 160
-403.552 -80.7789 -239.526 202 202 186
-401.835 -75.7353 -229.023 107 121 102
-397.756 -78.4815 -240.397 32 38 39
-405.565 -76.2247 -236.681 255 255 255
-402.362 -78.7654 -238.965 34 31 16
-399.171 -79.1258 -240.32 51 63 56
-405.86 -76.884 -239.95 46 52 43
-397.471 -75.8072 -225.468 238 244 235
-408.184 -76.8268 -236.253 99 84 75
-404.352 -81.0015 -240.563 216 216 200
-406.951 -80.3228 -239.831 103 97 74
-417.404 -77.3996 -242.577 40 57 59
-399.375 -81.8272 -239.023 75 71 50
-404.73 -76.5277 -236.898 147 152 146
-397.866 -82.2919 -239.171 74 56 37
-404.897 -77.9386 -237.629 76 60 43
-398.094 -75.3183 -227.129 67 67 51
-404.696 -76.9285 -235.513 103 108 102
-404.768 -76.2413 -235.721 216 221 215
-400.887 -76.9109 -239.388 52 59 54
-403.472 -77.9742 -237.714 73 76 66
-404.111 -77.0582 -238.992 92 99 94
-405.395 -75.6372 -232.507 185 198 182
-400.973 -78.7649 -240.552 37 47 41
-395.356 -80.0963 -239.131 51 44 26
-402.947 -77.9651 -237.026 67 70 60
-401.647 -78.6101 -237.932 40 37 22
-404.973 -76.2059 -234.864 141 146 140
-395.497 -80.3365 -239.342 79 54 35
-396.298 -81.988 -239.981 107 106 111
-407.435 -77.4767 -238.179 92 83 75
-403.379 -84.7447 -239.432 44 45 33
-402.935 -83.7477 -240.499 244 255 255
-403.73 -80.1965 -239.857 253 254 235
-401.135 -76.9019 -239.625 81 88 83
-400.525 -78.7317 -239.793 45 55 49
-418.849 -83.8719 -280.914 79 89 86
-405.466 -77.0726 -236.309 234 240 231
-400.493 -84.2472 -239.704 66 55 36
-400.902 -84.0566 -239.458 107 93 79
-399.442 -79.5028 -239.414 65 60 48
-441.072 -75.2387 -233.11 41 86 124
-468.434 -68.6757 -236.66 147 151 124
-480.131 -69.3852 -239.493 56 73 68
-487.3 -67.4076 -243.086 164 215 237
-441.343 -70.3935 -229.143 94 90 99
-478.804 -69.6191 -239.626 127 146 126
-455.597 -74.9521 -242.728 39 74 95
-486.539 -66.9568 -242.847 120 142 154
-484.149 -67.8631 -241.771 57 89 88
-455.661 -77.8583 -248.092 34 54 70
-474.004 -68.6074 -238.593 124 132 109
-479.435 -69.3928 -238.939 59 64 72
-455.486 -77.6404 -247.215 13 28 42
-455.822 -78.5591 -249.084 38 54 79
-454.524 -71.4557 -240.603 42 51 62
-484.922 -67.3604 -242.153 136 165 167
-470.441 -68.8865 -236.965 51 62 73
-454.885 -70.9216 -240.675 42 54 62
-454.793 -74.2658 -248.268 39 65 84
-454.976 -69.1649 -240.092 133 132 135
-455.463 -75.7225 -246.186 39 64 86
-455.285 -69.593 -240.305 35 35 43
-455.196 -76.0403 -247.61 43 64 83
-462.951 -69.3826 -235.457 60 62 62
-456.131 -76.9705 -243.951 29 51 67
-477.085 -69.5764 -238.531 39 44 52
-454.52 -70.8722 -240.113 39 49 57
-454.946 -70.8935 -240.527 46 56 64
-476.986 -69.8745 -238.736 175 216 239
-482.406 -69.6837 -239.848 90 131 145
-455.987 -76.9233 -243.933 40 62 78
-455.617 -75.7283 -246.291 39 64 86
-486.437 -68.0116 -242.021 187 229 234
-455.083 -74.0194 -244.266 31 46 60
-441.08 -75.1552 -233.067 71 104 125
-462.504 -70.3699 -235.188 182 222 225
-455.929 -78.6673 -249.486 51 67 92
-456.023 -77.3932 -245.988 35 55 83
-455.691 -77.3584 -245.803 33 58 84
-478.322 -69.0334 -238.51 28 39 52
-455.137 -75.562 -245.767 43 62 83
-466.357 -68.798 -236.073 115 115 115
-463.622 -69.3755 -235.504 49 55 58
-456.414 -77.4483 -245.928 35 55 79
-481.214 -69.7802 -239.675 136 177 191
-455.869 -77.7985 -247.592 88 105 125
-473.903 -69.3473 -237.86 90 101 114
-493.393 -65.7243 -245.074 70 91 100
-483.386 -69.6106 -239.999 90 131 145
-455.983 -78.004 -246.437 41 57 68
-455.079 -70.9078 -240.398 39 49 57
-479.767 -69.0482 -239.908 41 59 44
-470.308 -68.8316 -238.096 136 145 97
-476.756 -69.4497 -239.379 62 82 66
-459.247 -70.5095 -234.332 66 47 35
-441.244 -75.1701 -233.099 89 122 143
-455.984 -77.7309 -247.492 13 28 42
-455.267 -75.6824 -246.158 38 61 84
-441.217 -75.1665 -233.091 89 122 143
-456.3 -77.3828 -245.832 39 57 74
-478.842 -69.5885 -239.48 78 93 77
-454.697 -70.8625 -240.261 28 38 44
-455.703 -78.0903 -249.185 38 55 77
-495.468 -64.3917 -246.037 133 145 153
-455.486 -77.6803 -247.26 47 65 80
-441.211 -75.2808 -233.148 42 90 129
-478.637 -69.4746 -238.785 39 44 52
-469.856 -68.5495 -236.837 153 157 130
-489.174 -66.7867 -243.254 32 59 69
-455.778 -77.772 -247.824 117 135 152
-487.645 -67.014 -242.679 116 136 139
-456.321 -77.8537 -245.73 43 63 77
-473.854 -68.6141 -238.762 108 123 99
-453.654 -73.216 -230.867 111 110 113
-455.848 -77.7091 -247.449 15 33 46
-455.492 -74.9293 -242.715 35 65 87
-496.023 -64.8908 -245.257 130 145 148
-454.876 -69.6716 -240.33 28 31 40
-481.746 -68.3049 -241.066 184 218 218
-455.749 -76.9539 -244.047 45 68 95
-455.21 -76.1156 -245.652 51 66 80
-455.01 -75.9961 -247.758 42 62 90
-455.676 -76.1658 -245.928 51 66 84
-455.378 -76.142 -248.365 40 65 91
-478.623 -69.9052 -239.296 162 204 220
-485.673 -68.8164 -240.903 46 64 47
-456.031 -77.4603 -244.098 30 52 68
-476.075 -69.5108 -238.706 151 163 171
-455.978 -76.9965 -244.224 31 55 86
-455.424 -74.0328 -244.448 31 46 62
-455.73 -73.6958 -230.834 133 130 134
-454.898 -69.6097 -240.098 41 42 47
-460.165 -70.2767 -234.94 59 72 73
-482.26 -68.6196 -240.998 58 95 102
-454.099 -68.8284 -240.013 42 38 47
-472.35 -68.7325 -237.196 26 37 48
-489.047 -66.6607 -243.281 32 54 66
-454.782 -74.2437 -248.279 27 51 71
-487.21 -67.1191 -243.016 177 217 234
-441.509 -70.3955 -229.113 115 111 120
-480.804 -69.3521 -240.265 133 160 140
-465.966 -70.2303 -235.772 111 141 163
-455.005 -73.9871 -244.256 41 60 79
-474.986 -69.9032 -238.225 185 221 248
-455.708 -76.5358 -247.746 44 66 82
-441.172 -75.2381 -232.844 172 205 236
-450.395 -72.4929 -229.719 131 138 150
-454.643 -74.0453 -244.408 25 42 64
-486.211 -67.0388 -242.581 42 66 70
-441.263 -75.2937 -233.135 42 90 129
-455.746 -77.7381 -247.691 12 29 49
-455.552 -77.8311 -248.124 11 29 46
-455.178 -74.0878 -244.659 25 42 64
-455.968 -78.5835 -249.16 39 54 70
-441.239 -75.3519 -232.843 35 89 133
-454.298 -70.9411 -240.272 23 33 41
-454.435 -68.7646 -240.162 37 37 45
-466.653 -68.7982 -236.4 154 158 131
-489.651 -65.8825 -243.285 128 143 150
-478.083 -69.6895 -239.406 63 88 72
-480.74 -74.0001 -243.989 56 84 109
-455.956 -77.9743 -246.388 39 55 66
-456.77 -77.7344 -246.979 49 70 91
-465.294 -70.446 -235.561 175 215 243
-453.842 -68.9731 -239.922 37 33 42
-453.954 -68.7539 -239.895 170 170 165
-455.807 -78.7703 -249.964 16 34 49
-455.562 -77.7209 -247.688 135 153 170
-460.71 -67.2563 -235.43 160 157 161
-441.227 -75.3623 -232.839 35 89 133
-492.616 -65.5814 -243.869 128 143 150
-455.651 -77.8022 -247.884 17 34 54
-467.979 -68.6606 -236.307 121 121 121
-483.97 -68.4969 -241.271 23 54 58
-487.432 -67.1635 -243.083 172 212 229
-455.726 -77.7869 -247.948 20 40 56
-484.141 -67.1504 -242.229 51 75 79
-492.146 -66.609 -243.489 157 174 176
-494.543 -65.4412 -245.136 131 153 155
-455.582 -76.2585 -246.086 96 115 123
-454.671 -71.4417 -240.143 65 77 85
-455.58 -74.9384 -242.771 23 53 75
-448.489 -72.8889 -229.259 126 127 132
-441.262 -75.3346 -232.919 140 184 218
-473.077 -69.991 -237.915 185 221 248
-481.47 -69.6717 -238.938 131 155 186
-475.626 -66.4127 -241.649 35 44 55
-441.228 -75.3389 -232.838 47 101 145
-493.487 -65.512 -245.229 30 52 52
-493.054 -65.1586 -244.627 144 159 162
-483.599 -68.214 -241.373 155 189 189
-461.739 -70.2449 -235.069 171 184 172
-456.097 -77.4843 -244.112 51 73 89
-454.662 -69.6535 -240.015 36 37 42
-471.05 -68.7909 -236.998 6 18 24
-455.193 -69.1578 -240.166 133 132 137
-473.853 -67.4756 -240.893 141 163 165
-482.058 -69.5342 -239.041 32 56 87
-493.185 -67.2515 -243.423 76 117 115
-478.05 -69.7511 -238.655 171 192 213
-455.827 -77.8765 -246.009 27 46 67
-455.445 -78.2 -249.903 17 37 49
-455.865 -77.9044 -248.296 11 29 46
-479.856 -69.7249 -239.278 156 189 192
-455.026 -69.61 -240.122 36 37 42
-455.349 -76.8776 -249.327 34 58 76
-477.732 -69.8779 -238.204 196 232 255
-454.364 -69.7443 -239.791 181 182 170
-462.749 -69.0583 -235.659 123 123 123
-455.207 -73.995 -244.371 55 74 93
-479.328 -69.8026 -239.012 167 211 235
-478.043 -65.9306 -242.071 163 166 173
-455.242 -77.3626 -245.929 39 62 89
-456.29 -70.9139 -240.821 32 42 50
-494.398 -66.54 -243.981 136 158 160
-456.016 -73.6871 -230.895 132 127 129
-459.51 -71.019 -233.671 174 181 176
-485.241 -67.1539 -242.441 15 39 43
-478.39 -69.8043 -238.444 87 111 142
-483.566 -68.4333 -241.561 92 138 150
-497.37 -64.1338 -245.829 127 138 149
-454.25 -74.0083 -230.379 117 116 121
-456.526 -77.5363 -244.333 42 64 80
-485.04 -74.1619 -245.138 70 90 114
-477.679 -69.8169 -238.364 87 111 142
-454.109 -69.4942 -233.649 45 24 20
-454.424 -70.8358 -240.071 36 46 52
-455.575 -69.3696 -233.771 65 44 40
-470.66 -66.9415 -237.313 110 119 91
-474.145 -68.5762 -237.452 35 47 53
-455.292 -76.6112 -248.152 40 60 84
-455.35 -73.7715 -230.635 40 37 41
-459.837 -71.4748 -233.641 107 140 163
-435.285 -71.5523 -229.081 179 165 178
-495.814 -64.9651 -246.859 141 156 170
-455.872 -69.4539 -233.784 38 20 17
-455.36 -75.4349 -242.53 41 61 75
-485.718 -68.0832 -241.735 155 189 189
-474.02 -81.9843 -222.224 142 145 156
-455.139 -73.6266 -230.86 118 117 120
-549.779 -56.0825 -250.198 71 93 86
-527.681 -64.9252 -254.143 213 223 227
-501.935 -61.6925 -244.285 35 58 85
-533.72 -58.2108 -255.1 203 215 197
-528.541 -68.3213 -258.929 117 113 103
-520.123 -64.4316 -239.102 202 242 245
-526.515 -63.1092 -259.804 75 69 46
-527.507 -62.9058 -259.959 46 39 19
-549.239 -56.5316 -250.154 24 48 37
-525.51 -61.2965 -245.968 80 95 60
-522.216 -61.2724 -245.843 166 201 231
-522.954 -63.9446 -238.909 108 132 134
-509.697 -63.271 -251.416 51 48 24
-520.53 -63.8787 -238.876 125 146 142
-518.965 -63.9069 -237.7 49 98 93
-486.139 -63.1383 -239.032 246 242 234
-520.196 -64.0024 -238.989 158 187 178
-512.588 -59.6866 -246.672 164 159 156
-516.324 -64.2962 -239.106 166 208 215
-530.613 -59.7332 -257.165 61 69 55
-499.284 -65.321 -249.69 64 57 41
-493.44 -65.0229 -248.912 141 150 122
-520.569 -64.1345 -238.97 166 201 208
-496.751 -65.8223 -249.336 75 71 54
-514.645 -60.6733 -253.091 58 57 46
-494.129 -67.19 -248.785 72 77 57
-504.623 -60.2429 -241.58 82 88 77
-522.707 -63.7076 -258.866 57 50 30
-493.046 -66.5718 -248.81 211 220 201
-537.294 -60.6247 -256.171 17 27 24
-499.958 -68.2385 -249.216 91 87 68
-485.44 -66.6379 -241.291 3 46 77
-526.068 -72.5393 -252.096 79 98 119
-530.1 -59.6265 -256.7 49 55 46
-520.161 -63.8027 -237.659 49 98 93
-497.589 -71.1352 -247.937 43 42 47
-515.54 -64.0376 -237.869 69 110 92
-520.385 -58.1343 -248.647 41 39 49
-524.195 -68.4436 -252.203 196 205 207
-494.087 -66.379 -249.026 222 224 219
-495.344 -69.2415 -248.5 86 86 72
-507.133 -63.5165 -250.551 83 80 56
-503.681 -61.1121 -245.067 30 27 31
-518.559 -63.666 -237.908 161 188 168
-523.837 -69.1294 -252.296 24 34 40
-523.183 -61.5583 -245.761 103 135 134
-522.011 -66.6726 -252.019 197 210 211
-506.899 -63.7577 -250.906 41 37 16
-510.573 -66.0976 -250.98 79 75 56
-518.514 -64.4699 -258.1 70 63 47
-545.905 -56.2646 -249.967 60 75 82
-521.582 -63.2959 -237.57 162 206 201
-494.282 -65.5132 -249.35 85 86 76
-521.086 -63.8699 -237.62 129 169 170
-519.363 -69.7488 -254.182 106 102 94
-508.473 -66.454 -250.54 101 99 81
-521.624 -66.5911 -252.071 210 219 221
-496.987 -65.7178 -249.238 81 73 60
-486.2 -64.3675 -241.127 13 24 35
-543.279 -57.948 -249.364 202 239 248
-524.406 -63.5122 -239.688 15 47 48
-498.539 -68.5273 -248.97 76 74 56
-520.725 -63.7867 -237.493 75 130 126
-519.382 -70.6124 -257.799 76 70 63
-504.381 -64.2201 -250.373 58 54 33
-518.704 -70.4967 -257.536 77 71 64
-539.055 -58.8992 -248.385 90 118 125
-514.377 -60.6434 -253.023 41 37 27
-529.555 -62.3004 -259.885 57 53 32
-506.872 -66.8498 -250.381 85 83 65
-493.97 -64.9118 -249.219 15 20 0
-517.163 -63.7439 -237.986 161 188 168
-496.689 -65.8392 -249.306 75 71 52
-506.581 -63.7714 -250.765 62 58 37
-497.784 -71.2435 -248.089 203 194 188
-515.267 -58.9529 -247.442 20 18 14
-522.927 -58.7396 -251.441 14 24 28
-517.935 -69.2192 -253.431 180 182 167
-494.073 -67.2252 -248.788 51 59 38
-530.93 -59.7407 -257.486 31 39 25
-492.767 -69.8136 -247.965 221 218 178
-520.413 -63.4377 -239.272 176 206 219
-518.657 -66.7001 -252.676 21 25 29
-519.316 -63.4912 -239.531 158 196 229
-497.884 -71.281 -248.121 203 194 188
-522.649 -63.1343 -239.384 31 67 94
-517.065 -59.6685 -249.628 224 240 251
-551.841 -57.7624 -249.95 187 211 200
-547.934 -58.2688 -259.571 211 222 211
-497.892 -71.4014 -248.178 39 30 26
-541.42 -61.5682 -244.523 23 33 41
-503.612 -61.7402 -247.21 14 16 13
-498.63 -61.2717 -240.863 101 103 98
-509.482 -61.1347 -251.292 187 182 168
-519.999 -64.2794 -239.881 95 109 119
-495.509 -71.2206 -248.15 216 221 217
-491.081 -69.7774 -247.915 56 59 10
-499.646 -65.2939 -249.816 84 77 61
